# 3D point list with one line of data per point:
#   POINT3D_ID, X, Y, Z, R, G, B, ERROR, TRACK[] as (IMAGE_ID, POINT2D_IDX)
# Number of points: 405, mean track length: 3.6791251836135141
3025 -0.04219798758124807 -0.62463340467332928 2.7576414184568345 25 32 71 0.48381757877117604 22 11250 13 10856 9 11533
3026 0.00097121042561035612 -0.61032055022370835 2.7668061780011826 10 15 46 0.47680882130751145 14 10836 13 10859 12 8845
3027 0.00097121042561035612 -0.61032055022370835 2.7668061780011826 10 15 46 0.47680882130751145 14 10837 13 10860 12 8846
3028 2.2019403922520739 -0.56298819113644738 2.4080438237663802 210 162 143 0.88419615624339409 22 10649 13 10870 12 8841
3029 1.9818972348281623 -0.30306301987749318 1.7680401381229995 91 78 96 0.65651118748937676 14 10861 13 10885 12 7678
3030 1.9857541142111723 -0.25183429035918659 1.7715211461848213 137 144 180 1.5716704993227997 14 11431 13 10907 12 9631 11 11956
3031 2.0253450714065107 -0.33381770922415505 2.5004465117022288 90 146 121 1.5073907706987579 14 10874 13 10912 11 9721
3032 2.359051848033392 -0.35100913833846842 2.3768801021468877 230 239 225 1.6340223409223489 14 9975 13 10916 11 11069
3033 2.3516801977151909 -0.32429160453021388 2.3598912225233839 215 228 211 1.7608588005984898 14 9976 13 10917 11 11070
3034 1.9794632352919013 -0.13022676711564046 1.7858908861992588 133 149 151 0.58639960937646651 14 10885 13 10934 12 8906
3035 -2.8255820395708247 -0.079112078754704121 3.6391342772889645 52 59 61 1.0997212119376512 14 10934 13 10946 12 8939
3036 -0.21613408432561967 -0.077477906365382029 2.8697390075799758 24 13 22 0.12767485080490304 22 11312 13 10947
3037 2.3343525039855368 -0.13061468301412027 2.5372712884306505 183 202 173 2.1525610907499466 14 10919 13 10961 11 12006
3038 3.9412544881928095 -0.10036863912703196 2.7412734947120132 122 79 40 0.28273580182330149 14 10932 13 10996
3039 -2.8897580906708331 0.58146682265045957 4.0661863070193487 11 20 24 0.22389405937183474 14 11041 13 11032 12 9083
3040 0.28682720682691076 0.11276948322469008 8.3553621650502947 90 94 107 0.76362820175232515 21 12086 13 11050 12 9747
3041 2.551645356309403 0.36298281018667894 1.0219051672663499 200 145 113 0.42833767378470045 14 11060 13 11067 12 8055
3042 2.5611321362710964 0.35934651200611911 1.0244750765372743 167 106 74 1.1919154736756097 14 11063 13 11068 11 10015
3043 2.5605720254432018 0.38717383115140663 1.0316631528708748 172 123 85 0.4033064020862675 14 11066 13 11069 12 9093
3044 2.9971444836900698 0.33346226366121234 1.1823036675028664 132 87 61 0.37679017852241731 22 10869 13 11076 12 9100 11 10120 19 8868
3045 2.8699245619002642 0.45923882530331656 1.1170577046001542 96 53 23 0.21321341829649884 14 10357 13 11144 12 9839
3046 2.9938848197350154 0.51592702759150322 1.3782537838718614 77 56 32 0.71577761536892814 14 10405 13 11175 12 9843 11 12214
3047 2.778231536859618 0.61487545262822241 1.1463379395369646 90 58 34 0.25687049906511855 14 11157 13 11189 12 9239
3048 3.9046919544358767 0.62500264504688952 2.8531722399005215 137 107 62 0.61577453337672639 22 10315 13 11199 12 9307 11 12309
3049 4.0225898565562206 0.64721669536766024 2.9064594691762182 108 83 50 0.41878142501408444 14 10454 13 11233 12 9912 11 12332
3050 1.4859135119410292 1.1005441860173677 1.8569516976048208 125 141 78 0.23945790493183039 14 11233 13 11235 12 9915
3051 2.7163761048230306 0.78090710925031537 1.1564176135562843 152 118 81 0.73709575232274738 20 9971 13 11239 12 8372 11 10421
3052 2.7381638154824746 0.77443530612560008 1.1597422094962224 144 109 73 1.0560640446005947 22 11038 13 11240 12 9321
3053 2.9241339849677388 0.77953080728567015 1.3152781908594333 100 77 47 0.35099877813825003 14 11215 13 11242 12 9326 11 12297
3054 3.884311352275895 0.73662013677410787 2.8655955869746226 126 99 57 0.25376750599508463 14 11172 13 11254 12 9932
3055 3.9244302651674268 0.73527843066588672 2.8741212235129185 122 98 52 0.33613558481946404 14 10452 13 11256 12 9935
3056 4.032244370120047 0.73070104121494028 2.9248483638071421 104 87 54 0.24216734984276 14 11179 13 11262 12 9352
3057 2.7553644130598753 0.83448399924930849 1.180297032153502 143 109 75 0.85615859962809837 22 11073 13 11272 12 9363
3058 2.8256825220666899 0.85816752106485417 1.2237153403029521 115 86 47 0.49287465751409748 14 11246 13 11278 12 9366 11 10495
3059 2.8256825220666899 0.85816752106485417 1.2237153403029521 115 86 47 0.49287465751409748 14 11247 13 11279 12 9367 11 10494
3060 3.8476616454723036 0.9316182070519744 2.8914610058399686 129 97 58 0.21079672240134054 14 11224 13 11292 12 9965
3061 3.6741572577246187 1.0148351866363801 2.6295845853475615 121 206 118 0.28608582232233704 14 11253 13 11308 12 9997
3062 3.869664646901338 0.98942141260366112 2.7781113252098861 73 127 59 0.61203665645282979 14 10560 13 11317 12 9444
3063 4.681702264554561 0.89207791827719951 3.3796766864018508 97 151 101 1.0454230324852674 14 10526 13 11330 12 9455
3064 3.0062006314036411 1.0473634828402421 1.6678647742891999 73 28 9 0.76718980888904786 14 11293 13 11344 12 9424 11 11739
3065 2.7230035855429673 1.1306677325453793 1.2135093201665372 153 125 75 0.81531953165583637 14 11334 13 11376 12 9462
3066 2.9979154465476849 1.0654490972329684 1.2592137602021081 220 185 158 0.31403586995992977 14 10657 13 11382 12 9421 11 11736
3067 4.4991651044073961 1.0185030622759685 2.6419311212947081 107 175 108 0.36658688686154112 14 10603 13 11391 12 10056
3068 3.1096813124604097 1.1823418393426164 1.2658044118718801 189 152 105 0.69535675076045822 14 11717 13 11426 11 11805
3069 3.4579095562605442 1.1849569245348506 1.5489350375019848 76 147 79 1.1802645665764844 14 11351 13 11429 12 8710 11 10873
3070 0.21249364781360294 -0.98027633984649198 2.7250207376059032 234 157 163 0.20526509249896266 14 11731 13 11447 12 9584
3071 -0.00076236440755424184 -0.57836455784344631 2.7872676524471891 5 9 23 1.0635699162404797 14 11414 13 11477
3072 -0.040438700654447601 -0.47548270259453934 2.7809737417747895 18 25 59 0.3832598754303736 14 11427 13 11485 12 9608
3073 1.9949740652767889 -0.38171938627860463 2.0382736316240018 58 47 62 1.6322728208722674 14 10841 13 11488 12 10111 11 12459
3074 -2.7675483030334425 -0.46588256893739632 3.6454256908600979 9 9 13 1.6680337496600945 14 11765 13 11503 12 10120
3075 -2.7535121736824131 -0.39236751459087837 3.5480730338524471 160 166 168 1.2167240149704379 14 11764 13 11504 12 10119 11 12469
3076 -2.7257858903940848 -0.42606297284217021 4.2744267052279676 5 8 11 0.6118198163054932 14 11459 13 11515 12 9648
3077 2.059185296117974 -0.14822654830467699 1.8474584266633454 47 42 48 1.8325993289479567 14 10886 13 11520 12 8909
3078 2.6301162535181044 0.22478174530883535 1.0415492011275418 108 60 51 1.7617463372142046 22 11365 13 11572 11 12055
3079 2.8078853360963896 0.22530765391793794 1.0381048007491449 57 23 16 0.92892763365194264 14 11526 22 10105 13 11589 11 12542
3080 3.7655654399640444 0.10841388517078651 2.760276896041812 136 82 66 0.85051994872594183 14 10975 13 11603 12 10202 11 12613
3081 4.0645847740490426 0.063367268611030536 2.843342078073571 100 72 47 1.0951415724876852 14 11519 13 11606 12 10489 11 12899
3082 -2.7538585833226943 0.75631517250265845 3.5020179468372148 31 32 40 1.3495742300030289 14 11855 13 11615 12 9775
3083 -2.7538585833226943 0.75631517250265845 3.5020179468372148 31 32 40 1.3495742300030289 14 11856 13 11616 12 9774
3084 -2.5740333708185217 0.71446934098313786 3.6461952119801952 30 34 39 0.88798360888286343 14 11587 13 11618 12 9777
3085 2.8472563653083593 0.31223324605540603 1.0923416675210424 63 27 17 0.58288097531258465 14 11545 13 11629 12 9783
3086 3.0125807666793394 0.33324110867703804 1.1870884360538287 141 97 74 0.68457994781501053 22 11422 13 11631 12 9785 11 12153
3087 2.5432225200423098 0.54342777102717454 1.0679297958825591 174 136 96 0.37040702940263809 14 11128 13 11654 11 12618
3088 3.9555325603308997 0.44729133915523012 2.8355162619564398 143 102 61 0.29071788649250796 14 11602 13 11682 12 10289
3089 3.9991667878146666 0.59968767861385652 2.8856809874689882 100 76 40 0.66511365046668602 14 11143 13 11704 11 12713
3090 2.7373987594011284 0.7513790038264101 1.1499945009419545 109 77 44 1.1840701084100393 14 11902 13 11708 12 10310 11 11584
3091 3.8746351182748695 0.65354728935460016 2.8536916356357254 135 101 60 0.97537746652418955 14 11630 13 11714 11 12984
3092 3.7913108082359805 0.84187121103672624 2.8740518800649073 139 109 62 0.71771706353270348 22 11509 13 11728 12 9950 11 12348
3093 4.4308628675360131 0.86259877912914718 3.6215590821062946 165 162 168 1.3797748954965552 22 9431 12 8538
3094 2.8623366526921172 0.97493154277694527 1.2711498804443651 110 85 49 0.5036204291802987 14 11290 13 11759 12 9955 11 12339
3095 2.9962646051931898 1.0551899304532966 1.6556041591115844 49 19 2 1.2254646310418533 14 11294 13 11761 12 9984 11 12737
3096 2.8245157937066381 1.0838132346789955 1.2536461902694918 109 80 37 0.70244823193713124 14 11687 13 11771 12 9979
3097 2.8479888782729015 1.0705510694787159 1.2692856083805089 123 96 51 1.0080459833290181 14 11688 13 11773 12 9981 11 12355
3098 2.7341573259635021 1.1720540320856287 1.2213983164932722 139 115 66 0.74054050789470605 22 11555 13 11790 12 10012
3099 2.7339066080101952 1.231695105010487 1.2154638900621144 120 200 119 0.74723206632394412 14 11716 13 11805 12 10044
3100 2.1708006366453096 -0.58726409021578729 2.390881105546359 182 123 109 0.31772638737486941 14 11747 13 11829 12 10105
3101 2.0033337922540655 -0.30545499076154253 2.4741599340255243 90 167 137 1.1758909246934914 14 11454 13 11856 12 10127
3102 -2.9909264625011902 0.39899741146967815 3.9207192245079012 7 9 12 1.2262196328926809 14 11535 13 11897 12 10476
3103 4.0140003958250059 0.070369827052361833 2.8100193660529653 115 81 47 0.2767353496685393 22 11371 13 11920 12 10488
3104 -3.0638156715719465 0.6803992613511578 4.4266170551425326 31 19 27 0.31199754019954878 14 11559 13 11926 12 10217
3105 3.8425948152814193 0.16730874248897826 2.7658577298415215 166 114 76 0.20728306387437823 14 11815 13 11933 12 10508
3106 3.0224589099833761 0.4075446907266444 1.1944871723182815 143 111 86 0.37686769456222319 14 11567 13 11939 12 10255
3107 2.841519929889845 0.4679529158798007 1.0257155672135143 164 122 86 0.29123224682471333 14 11597 13 11948 12 10533
3108 2.8887281904231301 0.43894357497898484 1.1964093944092722 81 56 32 0.6013594177173609 14 11861 13 11949 12 9820 11 11414
3109 2.8925684470857735 0.46331952586963948 1.2081942404154362 55 28 2 1.0283758356889723 14 11862 13 11950 12 9840 11 11417
3110 3.2499180987941463 1.0898365327216468 1.2275226018882974 181 154 99 0.47874543530740549 14 12155 13 12031 12 10361
3111 2.2775792486303805 -0.60208736002713414 2.3794244769316846 225 219 219 0.23496945371372044 14 11980 13 12057 12 10385
3112 0.26344403558023277 -0.65725080155048032 2.8311006378021628 9 23 20 0.34422799935324749 14 11981 13 12060 12 10394
3113 0.26344403558023277 -0.65725080155048032 2.8311006378021628 9 23 20 0.34422799935324749 14 11982 13 12061 12 10395
3114 0.25336476061896179 -0.61507831575365757 2.8225172542173582 22 27 33 0.93411847723174812 14 11983 13 12062 12 10401
3115 2.9023996809914827 0.12711877196255683 1.0118384354794296 111 63 40 0.82997361933012548 14 12035 13 12108 12 10455 11 12852
3116 0.35844254109255552 0.062129305486942815 8.2971237504912896 145 145 159 1.3694153396250317 21 12900 13 12135
3117 2.8478768399195493 0.45091595312967614 1.0444810363583816 150 110 79 0.31658343353005003 14 11860 13 12158 12 10524 11 13128
3118 2.9597539008547091 0.57490400380593065 1.35195275480293 93 64 40 0.55912076387702714 14 12101 13 12167 12 10737 11 13146
3119 2.9597539008547091 0.57490400380593065 1.35195275480293 93 64 40 0.55912076387702714 14 12102 13 12168 12 10738 11 13145
3120 3.0131615919912313 0.54313075786125586 1.4562839002890429 80 62 32 0.36905878573105144 14 11871 13 12169 12 10549 11 12935
3121 4.0562039689659732 0.71195999160901813 2.9407764087684791 58 36 17 0.63612697393218587 22 11771 13 12189 12 10572
3122 4.0383597358293564 0.91587135061568192 2.9592703280502954 96 84 44 0.53391209804645445 22 11782 13 12204 12 10591
3123 4.3663680773854265 0.94525431657603454 3.0380739671918815 97 147 98 0.87893646480768139 14 12136 13 12211 12 10601 11 13020
3124 2.9729840243307217 1.0650190655884861 1.2464422346293418 198 162 124 0.25254934829463033 14 12141 13 12214 12 10596
3125 2.9717965169096807 1.0652444942340868 1.2480007769944224 198 162 124 0.46045947774931717 14 12142 22 12006 13 12215 12 10595 11 12734
3126 2.1328472611958018 -0.30601002624191653 2.4334500482654025 211 220 213 1.4220346685984593 14 12332 13 12256 12 10648
3128 2.8681026631851712 0.45451219983209057 1.0899316454574699 151 112 87 0.24780215138211037 14 12088 13 12308 12 10726 11 13129
3130 4.4359722138127307 1.0075862633330679 2.5063997019628235 111 182 115 0.64175160694017208 22 11809 13 12353
3131 3.3590659517517478 1.170876066617768 1.646766364150497 69 122 68 1.8046452020260986 14 12308 13 12363 12 10773
3132 0.21890277931691407 -0.8431127418668084 2.7566825498317589 245 231 253 1.3070605287164636 14 12320 13 12368 12 10786
3133 1.97519920457412 -0.40547454607663869 1.9833922663571333 39 31 42 1.2598318648133366 14 12181 13 12372 12 10794
3134 2.0520021798373245 -0.25947980368326218 2.0215732853572699 91 77 96 0.70393193967387102 14 12186 13 12379 12 10800 11 13348
3135 3.0216528077651255 1.1787800654965876 1.2771914823987633 196 177 135 0.72954370633240861 14 12385 13 12438 12 10914 11 13201
3136 0.15350934693603166 -0.92765958411907223 2.7579803497834656 10 12 16 1.202191284054754 14 12389 13 12443 12 10926
3137 -2.7850495263426058 0.55790187445713035 3.6476451196354098 70 86 95 1.798188288682508 14 12419 13 12473 12 10955
3138 2.9094465509722856 0.71409727484486596 1.2768051230897617 103 76 45 1.1676684181362065 14 12443 13 12494 12 11046 11 13484
3139 2.9302357617151618 1.172437028688855 1.2628339986847759 88 59 27 1.4911289286177345 14 12524 13 12506
3140 2.0187142408134271 -0.31851795037621417 2.1278831538984857 38 32 40 1.5690205654264737 13 12515 12 11064 11 13503
3141 4.1481371132286124 -0.17052138782289544 2.9798449482323881 53 38 26 2.1165543929329065 13 12520 19 11901
3142 2.8259866576081647 0.26090725818935956 1.0450879627743319 60 25 17 0.41338725598876747 14 12484 13 12522 12 11020 11 13456
3143 2.9020663470772314 0.26764929128095394 1.1704108556257196 76 45 32 0.98562381174398939 14 12485 13 12523 12 11021
3144 2.8641406382201557 0.4898214014124006 1.1443733187478273 88 56 28 1.9091308800761004 14 12426 13 12532 12 11081
3145 3.6862205817196729 0.76581990446258508 2.9319452227140017 97 86 44 1.5721653029665899 14 12509 13 12548 12 11049
3146 2.9209919982332524 0.85624057285519173 1.3363739702405584 101 71 40 0.5465528289372803 14 12514 13 12551 12 11095 11 13540
3148 2.8679319418768134 0.67212593082731342 1.2502760604902419 89 56 33 0.85663324068600855 14 12508 13 12586 11 13530
3149 2.8766313065054643 0.37018608246932438 1.159947335997132 49 25 13 0.44113653926223462 13 12606 12 11127 11 13561
3150 2.9750109907701798 0.41071584479409173 1.2010794965232834 166 121 96 1.5822865096627181 14 12594 13 12636 12 11162 11 13587
3151 3.8633084805133358 0.55101180178687015 2.8822157328189428 160 116 72 0.4278992053191798 14 12614 12 11192
3152 0.25428087550792905 -0.83442645091709289 2.7946081392196227 247 223 225 0.57662774497577796 14 6037 22 5919 13 118 20 68 22 90 12 66
3153 3.9044606301436779 0.73653511552663875 2.8701373504473398 114 90 52 0.60603382370364545 14 11173 22 10359 13 11255 20 9887 21 11719 12 9349 11 12327
3154 4.1650648495553426 0.02375423186083319 3.1102686674943389 239 233 231 1.6026446280500868 13 6745 14 1216
3155 4.165253291318014 0.031748552737209196 3.1048392836832877 56 47 46 1.1119715581834904 14 1218 13 6746
3156 4.0972823797233051 0.091728383673295236 3.0131835597803867 0 0 0 1.2491121923534667 14 12587 22 12438
3157 -5.6072148795180841 -1.5682628112011128 4.6080986520676586 103 114 117 1.2863685217119232 13 5908 12 60 11 6712
3158 2.2525692254160408 -0.68349795973697491 2.4082562458497945 55 119 30 0.3469057338066352 13 5981 11 6742
3159 0.20666010158132864 -0.61547677886218577 2.7146551223597273 107 115 180 0.23152527214697319 14 8622 11 6788
3160 2.2600212870010701 -0.60479863265516565 2.4370616979158717 14 13 9 0.64045978258126279 13 204 11 138
3161 2.2904939457527504 -0.55535322446536817 2.4450946663499438 136 148 133 0.51163197922576087 13 259 14 228 12 173
3162 0.23460872497121057 -0.59209840936956049 2.8127259632450365 61 78 79 1.0444427196943327 13 6004 14 241 12 192
3163 1.9468101591262326 -0.28422339301228317 1.7386643944018103 233 241 255 0.12934941365998798 13 6043 12 206 11 260
3164 1.948911666776024 -0.30714340128499251 1.7668525291788617 190 194 208 0.72500255902443655 13 8701 12 208 11 6794
3165 1.9552246832166478 -0.31690869156393875 1.7731098850085343 65 58 75 0.2860756776527355 13 6046 12 209 11 6795
3166 1.9597963313916924 -0.27386943190992435 1.7543465815538357 143 149 179 0.45271309490219064 13 290 12 211 11 263
3167 2.0508114591378392 -0.43810144872241408 2.4882759015657125 60 98 81 1.5726823726705055 13 6078 12 234
3168 -2.6634324427401834 -0.33932471308186224 2.9544694027535696 169 181 175 0.40432825490512303 13 6102 12 289 11 6850
3169 -2.7306896200254762 -0.35182992825344434 3.037067071016553 149 159 155 0.36421100072160983 13 6103 12 291
3170 -2.75705977517012 -0.43652909631988923 3.5630482573828743 90 96 98 1.5720723827160874 14 6255 12 293 11 253
3171 -2.7394517836839691 -0.43166067015124743 3.6455070900422633 179 189 158 1.2822987198995899 13 6109 12 300 11 6857
3172 -2.6732215689799883 -0.5305270532744808 4.260325416256677 45 47 50 0.14176361594637363 13 6111 12 302
3173 1.9720150679033357 -0.21623116652062688 1.7532887873541465 224 234 255 0.29857324875193814 13 6139 12 320 11 274
3174 1.9773521091161914 -0.19860179713397041 1.7543062286063962 236 246 255 0.2472154420035991 13 6143 12 332 11 279
3175 2.2994921621028483 -0.24506497258137061 2.3538770217824352 238 246 237 0.10779015670020613 13 6252 11 6953
3178 -2.6391305754069503 -0.26778860975222402 2.8036309186139703 38 48 50 0.91654777118058939 13 352 12 457
3179 -2.6748039266566934 -0.17844483265695485 2.9406199901504855 1 7 5 0.34207680997904566 13 6194 12 461 11 408
3180 -2.6686251500252238 -0.17039463475485797 2.9507204343640057 121 128 125 0.37488607162071297 13 6195 12 462 11 411
3181 -2.6686251500252238 -0.17039463475485797 2.9507204343640057 121 128 125 0.37488607162071297 13 6196 12 463 11 412
3182 -0.13830961294371716 -0.036046998705473302 1.715896460099233 13 18 23 0.3246920629765242 22 8659 12 465
3183 1.9647797253450656 -0.046972346559084957 1.7516342034587511 118 126 139 0.77561617346205214 13 6316 12 494 11 7006
3184 2.2890094349008079 -0.16317261055563309 2.3047115522973729 147 166 140 0.5444749611178088 14 651 11 7034
3185 2.2716351572217235 -0.14473267016002289 2.2869309825024104 122 125 132 0.52013267340965597 14 6401 11 608
3186 2.2637844836552716 -0.12896284640457067 2.2674204872094217 0 0 0 0.020059438566227931 14 6402 22 679
3187 2.3285799586214404 -0.14875054974584093 2.370670639353162 102 130 82 1.6136995222544706 13 6262 12 546 11 7049
3188 2.3093104263799873 -0.12626655055409064 2.3819126197439711 132 164 117 1.9958455128940564 13 6361 12 548 11 632
3189 2.325304318485518 -0.14103635405783393 2.5921250617883076 153 162 146 0.33114844762661655 13 772 11 655
3190 -2.668435663196167 0.059795105761164258 3.0089365203792813 17 24 19 0.65702416889717308 13 6288 12 625 11 528
3191 2.1422306161727729 -0.061560047994828851 2.0490685592331253 163 145 143 0.95918595359459857 13 6342 12 696 11 7017
3192 2.1488791460081043 -0.047300229023806435 2.0362033583665307 223 173 177 1.23041484440035 13 696 12 698 11 7018
3193 2.1296858384540673 -0.060964932369883193 2.1212044587506789 98 45 50 0.72916846308662964 13 706 12 702 11 7020
3194 -1.7109408660719192 -0.59798543390836956 8.6288474427077535 0 2 2 1.484472062439488 22 786 11 830
3195 -1.636648432561163 -0.61723744642644729 8.7074895584067935 1 5 5 1.6877683720457561 22 788 11 835
3196 3.9538736994266683 -0.11820646562203006 2.6813555517658285 141 100 63 0.26510413556237544 13 972 11 7199
3197 3.9202346515296176 -0.068225912433574537 2.7357162980763503 178 128 92 0.44116987750557257 13 978 14 6567 12 858
3198 2.1883525467252465 0.061886046367884265 2.5519459571331602 113 123 112 0.27658431208434481 21 6808 11 1041
3199 2.3839972677161709 0.051025332886005706 2.6444438588285388 127 145 113 0.10343435361749756 13 1134 11 7281
3200 2.3923237737632856 0.050080098544807994 2.6545681285601503 194 212 182 0.13862732292903568 13 6549 11 7283
3201 3.8395292752742645 -0.047221663658470261 2.7284103390566044 189 135 84 1.1785823680239227 14 994 12 1058 11 1141
3202 3.9632699134831677 -0.052891193655816363 2.758417589260389 74 35 5 0.2304084870605819 14 1023 12 1075 11 1164
3203 3.9898704289447995 -0.024739417370419556 2.7763188364232683 150 112 80 0.47733220257227343 14 1029 12 1081 11 7337
3204 4.0237130180331251 -0.029036234408772257 2.7947830376060092 137 106 78 0.17527692680891238 14 1032 12 1084 11 7338
3205 2.8116266950864715 0.22616592727040152 1.0418782674730587 60 25 18 0.34376238997062653 14 1339 12 1183 11 1009
3206 2.8137498067928055 0.26674692449227699 1.0284473421711486 138 88 77 0.67503461743834148 13 6680 12 1197 11 7409
3207 2.8357709195561327 0.21069791730066897 1.0740970428102186 88 58 50 0.44804708319888659 13 1122 12 1199 11 1011
3208 2.8354925480905484 0.22081494755692743 1.0759434469385718 79 51 41 0.90536953402210951 14 1347 12 1200 11 1012
3209 2.9270898448993172 0.2365876427710763 1.1752174165813731 35 17 8 0.61747999940903897 14 6713 12 1210 11 7420
3210 2.9913062466511082 0.23301232216484519 1.1938271325506085 84 59 51 0.40463969511039455 13 6693 12 1215 11 7422
3211 2.9975871003314634 0.2327629707520571 1.1973885054258471 50 25 21 0.47124932500333133 13 1431 12 1216 11 7430
3212 2.9990353731372545 0.2183585539410067 1.6229253469927201 116 108 74 0.49392613822878545 13 6698 14 1364 12 1225
3213 3.9149643487192769 0.065165910140344452 2.7581394085472697 159 115 75 0.41661897001866982 13 6740 12 1379 11 7516
3214 3.9171749842035481 0.079401358596308758 2.7082391722213695 166 117 76 0.18965086782548346 13 6741 11 7515
3215 -2.7501471867749547 0.64197829972697684 2.974561387239242 92 104 111 1.6279512406288035 13 1228 12 1473 11 1252
3216 -2.9207198258961631 0.5803908520237725 4.0652701320639242 107 113 120 0.72086060995455481 13 1265 14 9101 12 1504
3217 -2.8973123040168494 0.56485259582310898 4.0810490361783529 97 107 112 0.49892546192479159 14 6899 12 1505
3218 2.4328095717765743 0.3139177850155096 1.0486695857274 178 118 81 0.78477892378869984 14 1490 12 1524 19 1546
3219 3.0142857033362889 0.30375389279756865 1.1900350909891064 140 103 81 0.35299765343098083 13 6822 12 1592 11 7429
3220 3.8804751396340906 0.168449978743725 2.7694971291245456 149 101 63 0.058053608471054528 13 1764 11 1822
3221 3.9216662564745768 0.20029484915848772 2.7856945452581146 155 111 72 0.08967715667558214 14 1398 12 1717 11 2105
3222 2.5784256363067097 0.41348513291128536 1.0691439579696311 163 115 78 0.72127995435577252 13 6888 12 1814 11 7576
3223 2.8405802083782934 0.40378248041010012 1.0229323070198904 170 119 86 0.57291513339460454 13 1867 12 1831 11 1630
3224 2.8439580352095044 0.42415014060979417 1.0522480205453124 172 126 91 0.2581382258201888 13 1873 12 1858 11 1636
3225 2.8524919519074228 0.44538470661578661 1.0697915392171435 163 120 89 0.62985755433137292 13 2149 12 1861 11 1897
3226 2.8666367696950124 0.43523134052782941 1.0993277197622824 151 110 84 0.51985616480999408 13 6924 12 1865 11 1896
3227 2.8656117120271034 0.43374327286172903 1.1058451391540558 117 76 50 1.1006301564569114 14 2193 12 1867 11 1909
3228 2.872823696614927 0.44193389605471711 1.1108728592572692 109 66 36 0.43305279173392913 13 7051 12 1871 11 1912
3229 2.872823696614927 0.44193389605471711 1.1108728592572692 109 66 36 0.43305279173392913 13 7052 12 1872 11 1913
3230 2.3892041193939155 0.39846503711584924 2.6688814248828354 146 154 110 0.99015458112008714 13 1940 12 1933 11 2015
3231 3.6801608061392335 0.27619880219080867 2.8143051573199105 119 89 55 0.71300673264923342 22 6817 12 2025 11 2094
3232 3.8482164793339964 0.31562879616636347 2.7838590414776285 134 86 52 0.52303858156033922 13 2003 12 2042 11 2357
3233 3.8384389957694092 0.35392860006523508 2.786863347799156 190 139 93 0.61664727848259326 13 7146 12 2043 11 7955
3234 3.9171775433983331 0.31120015994087347 2.7959209799308473 169 122 81 0.26877300419567612 13 2012 12 2050 11 2366
3235 2.8503167035984402 0.47412146187979337 1.0563238726551936 155 109 77 0.54055306346345389 13 7040 12 2130 11 7703
3236 2.8503167035984402 0.47412146187979337 1.0563238726551936 155 109 77 0.54055306346345389 13 7039 12 2131 11 7704
3237 2.8707263093809772 0.46532526408417385 1.1729425619944676 88 52 24 0.51369975515450095 13 2173 12 2140 11 1920
3238 2.9874936402954493 0.44366106481672357 1.3510940278798889 68 48 27 0.66080233772415131 13 7081 12 2156 11 1972
3239 2.9831921000339614 0.461243477463461 1.3406834222212836 111 89 69 0.18288124545415221 13 7083 12 2158 11 1976
3240 2.967812401479752 0.49702254892084186 1.3236538877786421 96 74 54 0.25290584297543711 13 7079 12 2164 11 7846
3241 2.9780828259846279 0.49687494516577446 1.341002599841147 72 49 25 0.56674888976631788 13 7089 12 2167 11 2183
3242 2.9941260684698028 0.52165493268487262 1.3736162157154685 73 52 30 0.6327391357136477 13 2472 12 2174 11 2203
3243 3.0148616403159911 0.50699422645620695 1.4524883918123956 133 116 85 0.46983955059578369 13 2476 12 2186 11 2215
3244 4.0577860210566934 0.35960534102910652 2.8737065087300153 115 83 59 0.46606164456992771 13 7152 12 2365 11 2657
3245 3.0173967564781403 0.54383732806867269 1.4681374035946511 118 99 69 0.18102891006385993 13 2480 12 2443 11 7868
3246 3.0377953929850063 0.57391133906309555 1.4991702026397924 83 63 30 0.66253691290423278 13 2496 12 2458 11 2473
3247 3.9301174660348623 0.47886155839277211 2.832319172640982 129 90 51 0.30316256235899292 13 2613 14 2325 12 2551
3248 3.9503454126648894 0.46650567996640402 2.8333185328053427 158 118 77 0.085244183605611604 13 2611 12 2552 11 2896
3249 3.9676725746249479 0.4665978495244712 2.8405223166045546 157 121 80 0.2102616750889735 13 7249 12 2553 11 8214
3250 4.0132788637621344 0.46736231217222163 2.8616590018896622 133 102 64 0.35715633049318268 13 2624 12 2564 11 2902
3251 4.0114749296798982 0.49418909581644632 2.8642176816656284 139 110 69 0.72393396498497864 13 2630 12 2565 11 8215
3252 2.8094970521161757 0.69968318370081595 1.1765135420353536 124 98 68 0.26515829794799656 13 7383 14 7462 12 2627
3253 2.1292360110941937 0.92013330354524248 2.9333835688285359 1 39 1 1.6355814966681159 13 3023 12 2663 11 2800
3254 3.9687397775026589 0.58685948753756867 2.8640138263790411 161 134 92 0.39867063276416231 14 2674 12 2765 11 3183
3255 2.7730818515292057 0.77873874447332292 1.1790622148624685 120 95 60 0.77112564755420931 14 3348 12 2822 11 2709
3256 1.2159441053208375 1.1740307528604708 2.0470147280672637 2 35 0 2.0014448663094342 14 9493 12 2979
3257 2.9036564980238921 0.87625363480506802 1.3019476631422604 85 54 24 0.61924560287734109 14 3679 12 3018 11 3254
3258 3.8385197309637249 0.8498452542039231 2.8778033596174093 148 123 76 0.34533726194920705 14 3200 12 3166 11 3805
3259 3.9662344633570843 0.96869261535817419 2.9203110176627227 89 137 83 0.77109870301805961 13 4012 14 3777 12 3441
3260 4.1578527062710204 0.93092198039683616 3.0990204334593963 21 33 11 0.44839692897577965 13 4020 12 3454 11 4660
3261 2.8164828715722097 1.0360555436076186 1.241611909474194 119 93 51 0.52411380795582929 13 7913 12 3555 11 3571
3262 2.8263089730165545 1.0650304888860562 1.253582097256174 109 84 40 1.1082832689012307 22 4572 12 3558
3263 3.9606361507325047 0.98892982485675973 2.7758472219756665 77 151 69 0.47645682481054025 13 4011 12 3703 11 4642
3264 2.8356769986375152 1.145653416212375 1.2663174647920128 136 115 67 0.85611260875684758 13 8232 20 4118 12 3835
3265 3.2723538035646298 1.0702732861922295 1.228038726503524 90 71 37 0.88708722590231615 13 8251 12 3866 11 8749
3266 3.023454063643995 1.2213048594720393 1.2834392733478326 72 103 44 0.81616305687982404 13 8445 12 4311 11 4991
3267 3.4080681646181228 1.1765874534072962 1.5812895917897165 136 207 139 0.58582623485504537 13 8466 12 4357 11 5676
3268 2.2292406954493638 -0.60155777748796946 2.4430272242069417 239 223 218 0.92383091319263522 13 8657 11 129
3269 1.8893535252533942 -0.35720061574445328 1.7602877369112826 16 5 30 0.35849394402874862 13 8674 12 5506 11 162
3270 1.9166903891477807 -0.44069558697052696 2.2670836422727829 1 3 19 1.6976630421682672 13 6056 12 5513 11 6806
3271 1.8915505093968175 -0.42197956960242672 2.4257446113720196 248 254 255 1.0735028066097407 13 6069 12 5518 11 9674
3272 2.3400061960425251 -0.37607972971349024 2.3328984246914457 238 242 236 0.36113122636841799 13 8722 12 5542
3274 -2.7105194569511042 -0.47456696065780007 4.4038813850894369 84 90 90 0.56511727875621487 14 8748 12 5565
3275 1.9732268839121372 -0.2500697460270388 1.7612951596532789 235 243 255 0.41259360674461182 13 6136 12 5579 11 6864
3276 1.9850645072488726 -0.21539868221386596 1.7616836913222798 132 140 174 0.48383781019444932 13 8746 12 5580 11 9706
3277 2.0113522827354418 -0.19681314596290589 1.7879158834366449 81 94 92 0.55000306487562056 13 8749 12 5583 11 9707
3278 1.9149661521725634 -0.35771481012285605 2.491212654366973 104 134 145 1.1023454714166989 13 6161 12 5595 11 6882
3279 1.8531975667110645 -0.28224009598142069 2.4651255215035213 117 147 144 1.4575888386136768 13 6157 12 5598 11 9763
3280 2.3502153542646225 -0.32309263233103885 2.3813386952549216 149 163 144 0.021505977569775164 13 6179 11 6903
3281 2.3502153542646225 -0.32309263233103885 2.3813386952549216 149 163 144 0.021505977569775164 13 6178 11 6902
3282 2.3518061178985343 -0.25710032444797903 2.3729770090406856 201 213 206 1.3891777908015959 13 6187 14 8732 11 9771
3283 2.3702376034223978 -0.24474334443589918 2.4011405391141842 126 141 115 1.9557502184769593 13 6264 12 5627 11 6961
3284 -2.700459258567335 -0.2734547155827044 2.9830244904603722 190 196 176 0.57128364308082957 13 6107 12 5668
3285 2.3472361090176967 -0.17671390246215055 2.3957985047763573 104 132 87 0.94204558254368964 13 6259 11 634
3286 2.3326908803665507 -0.14138737478311275 2.3511698849118541 157 183 148 0.11799262984611061 22 6295 11 7045
3287 2.3185370806714847 -0.12844903646712325 2.3495831288367826 159 185 152 2.0555920088091537 13 754 14 6410 11 7047
3288 2.3252889601122941 -0.2275223995858574 2.55517712771745 76 104 57 0.23912726524057096 13 6270 11 501
3289 2.3398231401318306 -0.15509981866783393 2.5884537377282637 163 172 159 0.16813310643931309 13 6371 11 7067
3290 -2.778921139600163 -0.092960503278520831 3.6245153552264004 10 15 19 2.0677568536012454 14 8815 12 5753 11 6996
3291 1.9540599565014027 -0.011013489116777712 1.7385863278113654 126 132 141 1.0575669952205078 13 10123 12 5773
3292 2.141882594246435 -0.056083207503397639 2.0884049633468282 206 160 162 0.94647708851790002 13 6345 12 5787 11 7019
3293 2.3050581644391608 -0.10233361444524328 2.3825421658610351 80 111 62 2.0858800530317132 13 8861 11 7053 12 5805
3294 2.3686686720156018 -0.1132365534161438 2.4871985684285431 141 164 132 0.18202747863911356 13 10133 12 5818
3295 3.9908457480742436 -0.14301403904464643 2.7383556788255441 104 73 58 0.14136042053168271 13 6481 12 5853 11 7201
3296 3.9908457480742436 -0.14301403904464643 2.7383556788255441 104 73 58 0.14136042053168271 13 6482 12 5854 11 7202
3297 2.382953442855583 0.073872734165396234 2.6438005871393679 135 149 126 0.13148831949695974 13 8979 11 7284
3298 2.4025361349588881 0.1015978199955961 2.6866321656105328 146 162 138 0.33575793895890854 13 6553 11 7289
3299 3.6590420900060048 -0.03800625236961433 2.7783950432401934 160 111 77 0.89303420259908661 13 8934 12 5942 11 1125
3300 4.0977150184749513 0.016926247390451711 2.8698039784193368 112 87 61 0.41824173653266539 13 9002 12 5956 11 7522
3301 2.8042809031437494 0.21682097554099783 1.0339284041013339 72 36 29 0.49410376006358869 14 6708 12 6000
3302 2.4167590671921815 0.23541012667698924 2.7781872895332569 175 192 164 0.25566324071855223 13 6708 11 7486
3303 4.1575705337523159 0.088886969779419928 3.1619712930056103 90 78 73 2.2016759096621863 13 9095 12 6085
3304 3.0148787474712266 0.29168525095816544 1.1967729653079204 145 109 91 0.068245092848882485 13 1677 12 6155 11 1356
3305 2.3907694237928343 0.29764247205520461 2.7209282125135097 116 145 102 0.30656750427159185 13 6839 11 7636
3306 2.8361139745556097 0.3956102506921248 1.0239364387042549 129 76 46 0.42171658936751782 13 9193 14 6991 12 6294 11 7591
3307 2.8359031513194282 0.41760894446010871 1.0076502307075803 189 146 116 0.080559753060779268 13 9189 12 6300 11 7588
3308 3.0226040628258275 0.38064297688176496 1.1856823618604131 120 82 59 0.4388972535878341 13 9206 12 6317 11 10126
3309 2.8725454256118512 0.46168746704641583 1.1647749611129867 172 131 106 0.39220205001772074 13 7056 12 6435 11 7715
3310 3.0126426961574442 0.44875975235618198 1.1801363608952038 128 88 67 0.83569485187049308 14 7162 12 6440 11 7720
3311 2.9629209684341786 0.48325244243730214 1.2502361397148154 132 102 77 0.31724192900400761 13 10387 12 6442 11 1964
3312 2.987152227381495 0.44757649665427807 1.3431188302187809 104 82 62 0.4466134572680015 13 7082 12 6446 11 10211 13 9280
3313 2.9931519917076566 0.45700380059460749 1.3684420153305392 111 89 68 0.22695930973340595 13 7085 12 6448 11 10213
3314 2.993320449340203 0.46241511736149454 1.3626232070420914 82 60 38 0.27692155838674037 13 7087 12 6449 11 1979
3315 2.6867484147217047 0.62981751477512737 1.1040969995847478 187 139 119 0.26252006916294807 13 9383 12 6563 11 2417
3316 2.6867484147217047 0.62981751477512737 1.1040969995847478 187 139 119 0.26252006916294807 13 9384 12 6564 11 2416
3317 2.676278906230678 0.65405497748294306 1.104442132070206 111 67 46 0.75004470194844941 13 10453 12 6565 11 7986
3318 2.676278906230678 0.65405497748294306 1.104442132070206 111 67 46 0.75004470194844941 13 10454 12 6566 11 7985
3319 2.8285859544491023 0.62083923799862939 1.1774866886803335 49 20 5 0.56508948023423722 14 2859 12 6569 11 2450
3320 2.8709195992716854 0.69824402297824784 1.2281975209690306 103 83 54 0.69732999146019248 14 9414 12 6648 11 8119
3321 2.9786168240451421 0.87337592190433444 1.5325204045464942 141 139 117 0.43369211341123215 13 7646 12 6775 11 10586
3322 3.0122788601554564 1.0535388582284313 1.6710617076872571 155 111 81 0.49153473395534147 14 9644 12 6954 11 4022
3323 4.0469468757816909 0.97370248224215672 2.8782744282503372 126 202 122 0.28966369661417912 13 4014 12 7014 11 10779
3324 3.2838581370580178 1.0475333774344397 1.4573122628138926 77 73 33 1.3132576150977742 13 8064 11 8754
3325 0.37977833071677752 -1.102782438111086 2.7426360635912692 168 118 117 1.1030986084379617 13 9967 12 7615 11 9610
3326 0.33142374581158462 -1.0301213379053564 2.7267412730711498 200 137 146 0.38924273096167472 20 9319 12 7622
3327 0.33142374581158462 -1.0301213379053564 2.7267412730711498 200 137 146 0.38924273096167472 20 9320 12 7623
3328 2.1971392632358819 -0.74091846120148264 2.3924063029811475 89 81 93 2.361389232931856 13 9995 11 9622
3329 2.2365109613740755 -0.76863957626655832 2.4193466124492344 74 69 79 2.3749952271073655 13 9994 11 11024
3330 2.3462333339583914 -0.46995952923314055 2.39695596591541 244 252 243 0.43474524721387864 13 10043 11 9683
3331 1.9157392553630836 -0.36488830272416672 2.5041423725342815 143 170 185 1.192884270623056 13 8756 12 7727 11 11061
3332 -2.6578782647599466 -0.27465918098213532 2.8602500785148113 16 28 24 0.67005305159798867 13 10049 12 7752 11 9697
3333 -0.09446559150719927 -0.19775168983214203 2.81691736822602 62 74 118 1.7583683620411807 13 8788 14 8756 12 7761
3334 1.9891082696865352 -0.15194088635524866 1.7789057283076493 53 66 68 0.49961664636737479 13 6232 14 8711 12 7768
3335 2.338113278606091 -0.18632063911031096 2.6476167643878918 200 213 198 1.2568100889110199 13 6279 11 11133
3336 2.3494673338550731 -0.15500600595912201 2.6392176065898294 127 139 124 1.3355949297797256 13 8872 11 11135
3337 2.3494673338550731 -0.15500600595912201 2.6392176065898294 127 139 124 1.3355949297797256 13 8873 11 11136
3338 2.2307325232925059 -0.082401943510263712 2.2415129412061616 49 84 67 1.2277117961662796 13 10129 14 8785 12 7842
3339 2.669656257965995 0.12221694622934645 0.94984750094970882 225 169 147 0.41699442809231807 13 10148 12 7889 11 9843
3340 2.6421827050831928 0.19469084386198129 1.0434189896340156 61 31 22 0.74639025758625011 13 11004 12 7894 11 9929
3341 3.8094606042110994 -0.040997925178096403 2.7309956081033349 195 137 93 0.5087595605891515 13 8935 12 7934 11 9979
3342 4.0344650569776572 -0.029131241818892643 2.7971024201106225 93 64 34 0.38498325206387984 13 10220 12 7947 11 11257
3343 2.8149896269245653 0.23774824766874825 1.0366315183516126 106 64 58 0.62313402209434898 13 10255 12 7967 11 9936
3344 3.004296705169442 0.25137535045641762 1.2010554833391534 127 96 81 0.34444849336983824 13 10261 12 7970 11 10030
3345 4.022485022883215 0.076401533906569438 2.8152658093310756 115 79 51 0.29832650320490878 13 6742 12 8006 11 10179
3346 2.5660656343858497 0.31432803391014297 1.0197867659569169 159 96 67 0.35499364033536179 13 10247 12 8051 11 10011
3347 2.4065697579730871 0.25417023610589079 2.7618153630585596 197 215 189 0.60754121575358555 13 9068 11 10051
3348 -2.5340005669127015 0.90750814721779738 2.8181448870959587 22 32 35 0.93443157698838475 13 10322 12 8121 11 10099
3349 -2.5340005669127015 0.90750814721779738 2.8181448870959587 22 32 35 0.93443157698838475 13 10323 12 8122 11 10100
3350 2.8423550345903639 0.37632589717320908 1.0551699311051876 120 70 42 0.19274069932675317 13 9195 12 8136 11 10110
3351 2.8869178435682166 0.42847285889446629 1.1900820402725343 108 86 61 0.064620074643982603 13 10340 12 8141 11 7716
3352 2.8294735190923523 0.46191122218465247 0.98331248081105771 168 132 104 0.43526237757711678 13 10378 12 8196 11 7692
3353 2.7826416214987297 0.53966794700386633 1.1393038082334281 126 87 48 0.70903169758803397 13 10420 12 8207 11 10265
3354 3.0097083476770532 0.52077922192918424 1.416578128336925 114 96 67 0.28750744573227521 13 10425 12 8221 11 10273
3355 4.0210904406969057 0.46133024093266606 2.8662338424301925 132 105 66 0.83360104653584932 13 10444 14 9261 12 8323
3356 3.7445458385545898 0.66424050695770154 2.8724578120601993 96 62 33 1.7280206925124766 13 10520 21 9794 12 8356
3357 4.0377548288748297 0.5473060630728861 2.8964099314593379 85 66 28 0.2329080488596921 14 9344 12 8360 11 11662
3358 4.0461677046825049 0.6313387706574809 2.9215246624127973 120 102 65 0.87727027873139496 14 7333 12 8363 11 11664
3359 4.1146721024468853 0.62513147998184804 2.9938027923690496 97 85 55 0.4151170556562313 13 7450 12 8365 11 10617
3360 2.6582155816522075 0.83591187354360719 1.1572160415613315 186 147 110 0.38399078404437059 13 10533 12 8374 11 8234
3361 2.7817147181729389 0.74418399769881671 1.1712158895342188 134 107 75 0.48662071075426122 20 8880 12 8376 11 11587
3362 4.0921186992184042 0.73418285464349997 2.9880634191450524 68 61 27 0.23223073734471988 13 9516 12 8409 11 10656
3363 4.1526428510566697 0.83385189564044837 3.7089123565745123 79 120 81 1.2763693685844959 13 9522 12 8479 11 10710
3364 3.671365917155275 0.96869276719110564 2.9267743097260155 68 116 63 0.070010808795382407 13 10586 12 8514 11 10699
3365 3.8943255991882983 0.99333769382139869 2.7497538458494026 102 170 94 0.46849189072414976 13 9642 12 8566 11 10772
3366 2.8363366192391331 1.1549773642636576 1.2712343999443951 98 79 35 0.33146135728219372 13 10763 12 8583 11 11770
3367 3.2771717860063134 1.1906050379090121 1.4758395044477015 15 26 11 0.78406681252791088 13 9909 12 8663 11 11808
3368 3.4443790283216105 1.1810843097591768 1.5611555737043079 109 180 112 0.6287732691396738 13 10798 12 8670 11 10872
3369 0.34517029024246065 -1.137869293250735 2.7278545948592061 44 30 35 1.3994128067486333 14 10787 12 8786 11 11011
3370 2.2090217749000409 -0.77340363992400807 2.4157743421963573 142 136 146 2.1038406848648865 13 9991 11 11929
3371 0.24794831215463661 -0.88298471354442865 2.8244336395579084 198 144 139 0.44792809331497196 13 10826 12 8806
3372 0.26386409282159362 -0.84810066717484833 2.8020879910818883 168 110 122 1.4415423772131306 13 11453 12 8810
3373 2.3143511884400887 -0.64417024829249037 2.4237685907768909 234 232 234 0.80616890495960902 14 10818 11 11037
3374 0.085022234441451489 -0.62344188469409312 2.7160479900554417 58 66 117 1.0356461673686692 13 10858 12 8827 11 11041
3375 2.2918149160261567 -0.61216816524518836 2.4842265810733437 44 41 42 0.43761268368489015 13 10853 11 11943
3376 1.9757083057989244 -0.22040903562588945 1.7504757604717762 218 228 255 0.24137673847383842 13 10908 12 8868 11 11055
3377 1.8932508966696631 -0.27828602282406129 2.5300886642719305 101 134 129 1.0586163081831768 13 10911 12 8873 11 11095
3378 -2.6696474821263072 -0.14777910881301712 2.954811706937241 107 114 114 0.45900351744232704 13 10922 12 8895 11 11087
3379 1.9742986308214381 -0.090987900134043759 1.788038196138459 30 36 36 1.0167824899655209 13 10093 14 602 12 8908
3380 -2.661611875293608 0.021467552523025096 2.9991555999835797 9 16 18 0.98916866799880176 13 10945 12 8938 11 11987
3381 2.7821470215897497 0.12148102169157607 0.96345787864251897 209 152 126 0.45873144194219312 13 10977 12 8988 11 9846
3382 3.7883771387671024 -0.038200204349518228 2.735976065720982 200 139 96 0.54199440149930356 21 10663 12 9014 11 11236
3383 3.9307587414901519 -0.045705565711432077 2.7467079410051189 150 106 67 1.071020341041885 14 10126 12 9023 11 11252
3384 -1.8716956925377479 0.022169836124496752 8.6958872028880254 39 32 37 0.95740737155994537 20 10362 11 12122
3385 3.0217572959842149 0.33538001942345319 1.1942075038354076 104 71 46 0.1413310681616631 13 10307 12 9102 11 11359
3386 3.7966932026301325 0.18943161217494259 2.7691559534199199 187 132 87 0.28044405872939726 21 9464 12 9124 11 11391
3387 3.8073631966997672 0.22984500124021551 2.77180936461831 183 129 88 1.1086667063881239 20 8391 12 9125 11 11455
3388 3.9582981180676207 0.23068228168621074 2.804922280957606 147 105 67 0.34036004768239542 22 9018 12 9131 11 11464
3389 2.8300979389510852 0.39566003444938447 1.008608309241757 142 87 60 0.55141685497326398 13 10335 12 9150 11 11353
3390 2.8384241293756229 0.42254976921440529 1.0169578774174561 147 98 67 0.32706916732061425 13 11114 12 9154 11 12151
3391 2.846635924967412 0.41586272171823013 1.054114973259076 132 86 54 0.51983863618992687 13 11113 12 9155 11 11355
3392 3.9321812284858586 0.29918330580245245 2.8012941247590537 160 116 74 0.52965262579872052 13 10361 12 9187 11 11526
3393 4.0067113893545674 0.29346942063650905 2.8317092207368875 131 97 60 0.3721250423830384 13 10365 12 9192 11 11531
3394 4.0690841887510665 0.23854008245670549 2.8783903992171171 118 89 62 0.31343290745644042 13 10368 12 9194 11 12207
3395 2.8788635709076154 0.53851839006940772 1.209663080078748 118 83 51 0.62417801059623379 13 11173 12 9213 11 11474
3396 3.8670182627797383 0.37722313366056426 2.7899039409458539 118 77 55 0.90415828918261243 22 10916 12 9223 11 12238
3397 4.0435458536897704 0.53298484658502021 2.8927504333347658 116 95 61 0.97545495903966783 13 10482 12 9271 11 11622
3398 2.9072013114933339 0.70057636292999903 1.2574385112416531 112 88 60 1.009254374065546 13 11213 12 9281 11 12276
3399 2.9647253122887216 0.68464880943031659 1.3704527668179887 94 73 44 0.63737317259893345 13 10493 12 9283 11 11592
3400 3.9933077361550762 0.65200809048158237 2.8874932657933305 115 91 58 0.53741211127596711 14 9392 12 9309 11 11695
3401 2.677763127096334 0.8922618730846591 1.1716994595416386 176 134 101 0.64539347910552902 13 11268 12 9361 19 10753 20 10969
3402 2.978188709409352 0.88073951902961323 1.5426753997790819 68 48 31 0.74667147015544177 13 9554 12 9373 11 11678
3403 4.0634198240631445 0.8386585079567479 2.9656149468934534 106 96 54 0.25686477374158107 13 10589 12 9380 11 12371
3404 2.9026405507571802 1.0069794246715007 1.3207044531447059 121 91 57 0.5093965788636533 13 11340 12 9418 11 11711
3405 2.9026405507571802 1.0069794246715007 1.3207044531447059 121 91 57 0.5093965788636533 13 11339 12 9419 11 11710
3406 2.3054157095286811 -0.67162053347453732 2.4247056680029089 227 223 226 1.3119388789327777 13 10852 11 11932
3407 1.9159860575967469 -0.37128673587519279 2.4325234496256249 139 160 174 1.3482102662936317 13 10066 12 9619 11 11960
3408 -2.7733087549019277 -0.34620887912759057 3.5763360291787025 11 17 19 1.9774109830516435 14 11458 12 9647 11 11968
3409 2.3453143965833751 -0.17404411829298422 2.3448764474958219 112 138 101 0.96166963194805632 13 10940 12 9660 11 11101
3410 2.3314726793758922 -0.24306280367510083 2.5618481693700574 100 121 78 0.44693703704700549 13 10110 11 11980
3411 2.3270239653802323 -0.21239288754255764 2.6599580527109752 201 214 200 0.23317355180303756 13 10942 11 12500
3412 -2.6527549873128393 0.0027540494444149126 2.9662122421730244 51 58 60 0.62853040046718778 13 11529 12 9673 11 11985
3413 -2.6527549873128393 0.0027540494444149126 2.9662122421730244 51 58 60 0.62853040046718778 13 11530 12 9674 11 11986
3414 4.0029899829756124 0.0089635152460565311 2.7855153960670496 135 99 63 0.3149799397257389 13 11025 12 9724 11 12135
3415 -2.7757751723195518 0.51941871523002126 3.144593615147945 69 86 91 1.0438629928893952 13 11030 12 9727
3416 2.5691768610844914 0.28800996447947513 1.0211604067829212 150 86 63 0.17718793073838124 13 11588 12 9731 11 12100
3417 -2.817728500713077 0.72191592290485718 2.9392131077765491 22 28 33 0.94808027449334986 13 11608 12 9769 11 12099
3418 2.8588973818706913 0.33254920587709602 1.1044298436078339 70 33 23 0.73432522224466867 13 11075 12 9784 11 12103
3419 3.8107718077815091 0.16367457564059915 2.7708161146156329 179 124 85 0.12931072071744049 21 11545 12 9794
3420 2.8382722123476771 0.44404973854839408 1.0059732138251687 184 146 118 0.12144993344306794 14 11100 12 9819 11 12178
3421 2.5686034882969917 0.64045089928593391 1.0996615531922034 178 133 103 0.62457990445013845 13 11687 12 9863 11 11472
3422 3.9298746391367487 0.48473186908250965 2.8311128318186274 145 106 67 0.36086715281733922 13 11684 12 9873 11 12292 11 12702
3423 2.9607318629341339 0.65372981443126255 1.3504429484625029 50 34 14 0.86208646653227672 13 11693 14 11158 12 9888 11 12247
3424 3.9013851216186923 0.65407781908124907 2.8526105900452685 132 105 63 0.94568674623574289 13 10525 12 9909 11 12308
3425 3.9613060034253511 0.73597266520396776 2.8890268912934567 119 101 59 0.26664093813938622 13 11258 12 9937 11 12333
3426 2.8227827298858221 0.88530708053170559 1.2274393182368479 136 103 69 0.56842716716478414 13 11280 12 9940 11 11674
3427 1.6046936497170798 1.1900159553360885 1.442556517296762 168 244 173 0.87686953208930729 13 11746 12 9953 11 11667
3428 3.4106269707162875 0.97424966334669927 2.8057271314264334 48 91 52 0.30276170685826487 13 11737 12 9960 11 12344
3429 3.9437588760106372 0.92957899544790057 2.916555722909965 119 97 54 0.17109486565546442 13 11319 12 9968 11 12370
3430 4.0813215539489711 0.9135882872122344 2.9986509734776425 94 83 51 0.52629292925266657 13 11325 12 9974 11 12389
3431 3.7316982647263108 1.0129887192217741 2.6358762598187644 119 205 116 0.30929870981878027 13 11313 12 9999 11 12759
3432 3.9832248482678434 0.9898756868108709 2.781987622808952 136 211 129 0.84215207151190186 13 11367 12 10004 11 12763
3433 3.3034328523522278 1.0933617762806813 1.6554397192023411 98 114 60 1.19947130846349 13 10705 12 10026 11 12758
3434 3.0060322368660461 1.1938390057072583 1.2776534274891895 202 180 135 1.6394903482246554 13 11806 12 10048 11 11801
3435 3.9601826122272268 1.1134457722657121 2.006467412940157 94 171 92 0.070903703061203791 13 11439 12 10053
