# 3D point list with one line of data per point:
#   POINT3D_ID, X, Y, Z, R, G, B, ERROR, TRACK[] as (IMAGE_ID, POINT2D_IDX)
# Number of points: 389, mean track length: 4.274295879039431
19905 3.431958739757293 0.69009321415101021 3.5110184027601639 93 183 119 1.1783296204748448 15 11394 14 11249 13 8067 12 8979
19906 -0.58899746828267563 -2.6314742672905229 6.7496456695744982 159 202 206 1.6818997489628522 23 11307 14 11283 9 10937
19907 -2.5515574876468321 -2.8829191343742777 7.2514476394062628 155 197 203 0.67042275865823286 15 11440 14 11285 13 7719 12 8412
19908 -0.86920124721380354 -2.588582405324952 6.825239356085901 113 134 132 0.96955153787232051 15 11796 14 11290 13 8094 12 8731
19909 2.4023574655057089 -1.9163214381578091 6.0321582114522965 144 142 122 0.68780103183628671 15 11455 20 7588 14 11307
19910 2.4350266667555278 -1.8870481335943528 5.9376623097940335 144 142 122 0.74219262655907592 15 11456 13 7724
19912 -3.1181811623043392 -2.4849890437806876 7.489153707321945 151 194 202 0.6185111110577568 15 11474 14 11313 13 7749 12 8443
19913 -4.8596365549375546 -2.5714737423650207 7.9481705574816264 84 118 141 1.020753933261267 15 11489 14 11317 13 7769 12 8457
19915 -0.67179759868154443 -2.0663421916790892 6.89074634134509 165 205 209 0.49202082149282222 15 11494 14 11321
19916 0.8993619971271507 -1.8849300789987411 6.44464330366291 115 142 153 1.13363000974087 15 11486 14 11324 13 8110 12 8749
19918 -1.2063800928502313 -2.0467837385223353 7.0250598671792517 163 201 208 0.56418923744179472 15 11498 14 11333
19919 -2.5639376422980251 -2.071867117373646 7.403023163757469 137 143 134 0.26106323866849768 15 11507 14 11336 13 8118 12 8754
19921 -5.2615939955436746 -2.2216221760411252 8.1404208978639616 133 177 192 0.72834102959770763 15 11520 14 11340 13 7791 12 8482
19923 -2.2960688969970566 -1.849563178519241 7.3772190386733287 157 199 208 0.27691832933025812 15 11532 14 11353
19924 0.93725956961255408 -1.5751524203521661 6.4968120748482212 136 156 161 0.4057921498276042 15 11531 14 11364 13 8128 12 8770
19925 -2.5440933709249194 -1.6988818072882754 7.4474402637268078 158 200 211 0.62159052513470903 15 11539 14 11368
19926 0.99995876514460724 -1.3837685167521072 6.5088823025386962 179 213 214 0.2541656006147901 15 11545 14 11374
19927 -3.453535510188833 -1.4475188603738809 7.7683508904137231 148 192 205 0.37405239698194825 15 11561 14 11375
19929 0.8500431207040593 -1.2369672535026364 6.5842267457145267 152 166 165 0.30892229210451277 15 11563 14 11389 13 8154 12 8789
19930 -1.0989617349873462 -1.1112160604156711 7.1515590700405767 137 150 154 0.19922623452191313 15 11572 14 11401 13 7841 12 8532
19933 -2.519079255549403 -0.90685451909523318 7.587034104742945 159 199 212 0.55962094196293322 15 11580 14 11413 13 7853 12 8540
19936 -1.7920124862025346 -0.42191412036040454 7.4369346947607742 171 204 215 0.15560669955578291 15 11622 14 11441 13 7889
19938 -1.1578772907259289 -0.21379223760113181 7.3008632914002352 146 159 168 0.056285315300782512 15 11642 14 11464
19940 2.9019524444740856 -0.31804330660869529 3.5633327353705164 159 124 89 1.3857527128769376 15 11637 14 11472 13 7921 12 8158
19941 2.4869205956519407 -0.051297614445243077 1.6612954724205331 51 36 24 0.92927405863622459 15 11668 14 11478 13 7940
19942 2.5555454138721405 -0.2561253562081513 3.67302912772193 211 172 126 2.1320532420786384 15 11644 14 11479 13 7429
19943 -1.0992640688909501 -0.075976920777506965 7.308495971290542 178 209 217 0.38070008568168906 15 11651 14 11482
19944 -1.3129601046543662 -0.03759226633881628 7.3782378173127539 164 166 166 0.31081171940668512 15 11654 14 11486
19945 -1.3129601046543662 -0.03759226633881628 7.3782378173127539 164 166 166 0.31081171940668512 15 11655 14 11487
19947 -1.5043558812004949 -0.010878304089595522 7.4253794100000903 167 167 167 0.23146564838564113 15 11658 14 11489
19948 -1.2403231647843573 0.017378308070367016 7.3675701779160603 179 210 221 0.26423924076849747 15 11667 14 11493
19949 2.6066734496202058 -0.42468435164418955 6.221921276308179 199 222 228 1.6915066163614363 17 12453 14 11497 13 8239
19950 2.2802176949743229 0.055904766255702655 1.4318227987474099 103 64 48 1.0627498337096108 15 11697 14 11498 13 7955 12 8597
19951 2.2853693841294453 -0.1486587301420467 3.7539150690241496 210 156 112 0.28978857225356869 15 11662 14 11499 13 7948
19952 2.3041531928497094 0.057485699035901956 1.4642766056878365 117 74 54 1.2547598712772465 15 11700 14 11503 13 8243 12 8598
19953 2.9282509933614094 -0.19805953651336577 3.5386134089207886 156 123 84 0.48001704326427302 15 11664 14 11514 13 7951
19954 -2.3192008847091476 0.30247460072510179 7.7028080482997563 124 137 147 0.49235230084592119 15 11680 14 11515 13 7963
19955 -2.3192008847091476 0.30247460072510179 7.7028080482997563 124 137 147 0.49235230084592119 15 11681 14 11516 13 7962
19956 2.4678847473270049 0.099771301394255357 1.6629395101634772 62 41 22 0.34460710393040944 15 11289 14 11546 13 7523 12 8205
19957 2.7915950799565525 -0.05333216764361623 3.5777114677192632 157 122 88 0.54527016654231542 15 11935 14 11552 13 7991
19958 2.432945120983744 0.39198057902241507 1.5488637663092419 123 87 59 1.0327266645623876 15 11365 14 11588 13 8040 12 8273
19959 2.7856750121300218 0.72132806819149586 3.4852416688333978 100 189 112 0.65927951383024408 15 11388 14 11609 13 8325
19960 3.7787095163466695 0.55718425407175054 4.3368448442106109 63 114 94 0.59219894300499687 15 11757 14 11616 12 9163
19961 2.6073748238131351 0.83800587037505136 1.7734307326348184 170 147 129 1.4326238325125289 15 11772 14 11624 13 7676 12 8336
19962 -2.0547359711899493 -2.6166288406421723 7.1334799933330038 160 200 205 1.7877686901842387 15 11798 14 11656 13 8356 12 8995
19963 -1.5739504426305344 -2.2852119862702449 7.1047591080421579 159 202 208 0.17202026397593465 15 11806 14 11657
19964 -2.191824270596177 -2.2383345301004609 7.280682299919194 154 199 207 0.93487811939458554 15 11813 14 11663 13 8111
19965 -1.0897044387719406 -1.9414643813915471 7.02573259152628 162 203 209 0.77442067662349312 15 11820 14 11669
19966 0.022567268737355553 -1.7398710256995087 6.7483383720432988 174 210 211 0.46372289553957885 15 11823 14 11676 13 8365
19971 -0.72806863420838597 -1.419682484208745 6.9970375527766002 173 209 214 0.51783949682746222 15 11850 14 11699 13 8145 12 8779
19972 -0.47878661125197786 -1.3716549455402758 6.937692055153172 175 211 214 0.52795280190376059 15 11857 14 11700 13 8399
19973 -0.57678113258769637 -1.126785943189732 6.9730557132030331 175 209 215 0.798240691189809 15 11868 14 11719 13 8410 12 9040
19974 0.95691152941687385 -1.07728917394934 6.5695828528636353 186 215 218 1.0145747895419752 15 11870 14 11721 12 9047
19975 -3.8432138331120242 -0.0613170509144286 2.2904955557445099 10 16 21 2.0971423568758794 15 11894 13 8193 12 8803
19977 -3.8404470453164969 -0.0065497283296309071 2.3400625508370201 146 170 132 0.77499307240875137 15 11901 13 8198 12 8811
19978 -1.4628645212836087 -0.82578078894306894 7.3401656453607567 171 207 217 0.0051474123751632985 15 11888 14 11740
19979 1.3232209897984959 -0.90555392696511228 6.456907612974347 186 184 174 0.63233844181178189 23 11827 14 11741
19980 -0.89135198643209013 -0.60944807532453193 7.1748997150894986 179 213 219 0.1412197415801672 15 11908 14 11751
19981 2.5215046913899477 0.13676572342813539 1.5898585665063583 167 135 108 0.6216996013153393 15 11947 14 11805 13 8272 12 8626
19982 2.538074985669875 0.15090171049905318 1.6067302342362586 100 71 39 0.76826829905516814 15 11953 14 11810 13 8486
19983 2.2561020717929341 0.3661256756346864 1.4461136205618963 185 149 112 0.31416204704520528 15 11748 14 11829 13 8300
19984 2.8351050103454516 0.70769458996651147 3.5211150373365308 69 114 81 0.26933422055394501 15 11980 14 11851 13 8519
19985 2.0570276293554755 1.0640155999261716 1.5457242274849106 102 160 102 0.44243060863358369 14 11862 13 8334 12 8695
19986 -3.2938824057812632 -3.0585535051708002 7.4141453567527922 102 135 156 1.3400688239148926 15 12013 14 11886 13 8350 12 8990
19987 -3.2938824057812632 -3.0585535051708002 7.4141453567527922 102 135 156 1.3400688239148926 15 12014 14 11887 13 8351 12 8991
19988 -0.72507313859121691 -2.5708907816160327 6.7923941361190474 161 201 208 1.1859717223681348 15 12015 14 11889 12 8992
19989 -2.8599267948233824 -2.6331903805536028 7.4208937528870624 156 197 203 1.7283401335115662 15 12024 14 11897 13 8556 12 9182
19990 0.6497913247509558 -1.671694778836246 6.5671400822379624 176 210 209 0.70645247528588329 15 12039 14 11916 12 9191
19992 -2.1688509333573993 -1.6809209325504753 7.3805263244910808 146 171 175 0.54006309641603878 15 12054 14 11923
19993 -0.30905244021003114 -1.4929299090010257 6.8553266925422998 175 208 212 0.22694455345202311 15 12058 14 11929 12 9196
19995 -0.84313680014277381 -1.3892243827795849 7.0298474604883792 163 160 147 0.56433105398356909 15 12065 14 11934 13 8397 12 9021
19996 1.7317716700517589 -1.2534873620529461 6.3282608740271362 182 214 218 1.5721476264132976 15 12068 14 11941 13 8579 12 9204
19997 3.089748307283358 -2.2646302815974715 5.7641807443404796 0 0 0 0.011269517995759495 5 7659 8 10108
19998 -0.33267773283307517 -1.1321078448091102 6.9403124168224153 182 215 219 0.28694005902708647 15 12080 14 11953 13 8587
19999 1.9465520061987991 -1.0536289733553963 6.312825933811653 187 217 219 0.71243350858738719 15 12086 23 12051 14 11961 13 8591
20000 -1.2612011132824814 -0.8386886152592693 7.1914108780510917 172 207 215 1.5877494363532312 15 12093 14 11965 13 8595
20001 -2.2967126041528605 -0.070316258921478816 7.6242548010834952 132 159 183 0.32665873806193874 15 12104 14 11974 13 8442
20002 2.2938519258467673 0.039508874826798872 1.4449235716974043 60 38 25 0.65620050170336264 15 12112 14 11979 12 8861
20003 2.997348834291651 0.12697355216854886 6.2033471583010984 169 175 185 1.286177692707811 10 10581 15 11736 18 11240 14 12027
20004 2.4371122530228702 0.47224442676977313 1.6169677415573709 67 45 27 0.29488338514132539 15 12147 14 12030 13 8506
20005 3.0197350156912406 0.43120754755049795 5.3786064052911655 163 180 190 2.3785204477615545 15 11967 14 12035 13 8645 12 9361
20006 3.0262893136602464 0.42726428984598308 5.3597463137272401 163 180 190 1.4582935107903214 15 11968 14 12036 13 8646
20007 3.5950226001756587 0.70277271575559874 3.4798002731921551 181 203 210 1.2095073398584126 15 12154 14 12044 13 8659
20008 2.3820312839536988 -1.8758403297722825 6.0285262941867055 147 144 124 1.720202076894592 23 11984 14 12074
20009 2.3820312839536988 -1.8758403297722825 6.0285262941867055 147 144 124 1.720202076894592 23 11985 14 12075
20010 2.2505128313897829 -0.68853200479541499 6.2600284930383046 0 0 0 1.1754897151463204 1 10044 2 10699
20011 0.81271445494593331 -1.6258993268489665 6.5270055148172954 173 207 209 0.83742661754433589 15 12192 23 12183 14 12081 13 8681
20013 -2.0717430892412048 -0.69840934656704867 7.46889087280735 125 150 173 0.032051812179485981 15 12214 14 12104
20014 -2.0717430892412048 -0.69840934656704867 7.46889087280735 125 150 173 0.032051812179485981 15 12215 14 12105
20015 2.4850408003132531 0.25133855396287053 1.7359988087318152 119 95 58 0.71590973296680915 15 12236 14 12132 13 8731 12 9344
20016 2.419863583178457 0.31164736995052555 1.530644713111474 136 102 76 0.54604881934384131 15 12237 14 12137 13 8636 12 9258
20017 3.4980070718003229 0.67829189157661618 3.4923789877266627 96 186 122 1.0695262707045803 15 12246 14 12152 13 8751
20018 2.4648065416041218 -1.7951959187564108 6.013169210656975 159 198 198 1.1186716134231349 15 12272 14 12186
20019 2.6593328525119908 -0.015018354005884051 6.2607376783908748 201 223 234 2.3318266972518864 7 8447 10 11204 9 11441
20020 2.6572807000682461 0.85533739110134233 1.80615872188822 170 146 104 1.8245418642322164 14 12232 13 8749 12 9280
20021 2.4107428429656008 -2.1201769689785999 5.9532275521446731 153 194 194 0.28296236134614949 23 12329 14 12240
20025 2.5462615410930991 0.052814382926794974 1.7282385007823418 157 132 106 1.8580047141277629 15 12340 14 12295 13 8823 12 9469
20026 2.4833275280463596 0.40215874607837176 1.6915576299829285 120 86 49 1.6538468142134084 15 12353 14 12301 13 8830 12 9446
20027 2.4833275280463596 0.40215874607837176 1.6915576299829285 120 86 49 1.6538468142134084 15 12354 14 12302 13 8831 12 9447
20028 -1.1397319416052467 -2.7108490106933947 6.8853415978574599 84 124 131 0.67365352584882021 23 4875 15 4959 14 214 10 6399 20 3655 22 74 21 192 11 4014 13 104 12 116 9 6591
20029 2.2090438661637797 -1.1975760731017511 6.2055216657116299 115 132 130 0.953154894207347 11 1465 15 5689 14 5826 10 1401 20 1196 13 3929
20030 -0.013590593278809531 -1.1413357456714821 6.8347612634611767 167 195 200 0.8210142170110788 23 5708 15 5777 14 5857 11 1581 7 3784 6 3689 5 5257 20 1335 21 1142
20031 1.8769664374227184 -0.89337020901996356 6.3533761801329423 194 217 218 1.5876445629715574 7 1310 23 2076 14 8283 8 5319 18 8967 10 1751 17 11567 16 7587 22 1372 21 1308 13 5628
20032 0.34669030776099174 -1.7962068389419072 6.6224880342873851 119 126 126 0.85633796644972149 23 969 15 750 14 854 8 4755 11 891 7 3490 6 4979 5 5029 4 8945 3 9960 10 759 22 575 21 600 23 5244 15 5326 13 559 12 581 9 1122
20033 2.1789496404905822 -0.94013339887205016 6.2594038236501035 164 161 158 1.8013424068733082 4 10677 2 10000 21 7139 14 10934 11 8276 6 6363 20 6990
20034 2.4452625134380326 -1.2196824603118428 6.1359189741279039 142 157 160 0.43223837749442751 4 1734 3 1720 14 5805 22 1097 21 1050 23 5652 15 5656
20035 2.4858502533959062 -1.2169424065535415 6.1252695166850888 146 155 156 0.43316703945578272 4 1738 3 1725 14 5807 18 7624 15 5659
20036 2.3424532400777118 -0.64553747026556274 6.259581313956371 133 148 160 0.37292205010146084 4 2350 3 2356 14 6250 18 7937 17 10286
20037 2.1739299211180616 -0.78861797157376023 6.2838704459385317 136 160 166 0.56832764752705045 8 2322 6 1495 5 1534 18 7809 17 10187 15 6012 14 8339 4 6089 3 6271 13 4138 2 1773
20038 2.1739299211180616 -0.78861797157376023 6.2838704459385317 136 160 166 0.56832764752705045 8 2321 6 1494 5 1535 18 7810 17 10186 15 6013 14 8340 4 6088 3 6272 13 4139 2 1772
20039 2.7361528838242437 -1.6714670705504202 5.9759708322173868 120 139 138 0.43216975143279407 22 555 23 5191 15 7848 14 7914 10 853 11 906
20040 2.4107899093608141 -0.84467624576474021 6.2069363762733074 109 123 127 1.0853720492891628 11 1894 20 1597 23 5935 15 8279 14 8316 4 6043 6 1440 13 5649 9 2164
20041 2.973204336755972 -0.037224455357999807 6.1811496348993566 139 154 162 2.2270935593159775 8 7395 7 4379 5 4316 3 8697 14 11145 6 4227 2 8100 1 7353 23 10591 15 11281
20042 2.3806626575013459 -0.69479010067256353 6.239205057396541 143 160 172 0.75222713723128753 7 1496 6 1588 5 1623 4 6146 17 11104 14 8404 10 1995 11 2100 18 9052 20 1766 13 5704 9 2375
20043 2.3241998726205901 -0.66921080586107395 6.2605711887209434 141 158 171 0.70029147757344068 4 6174 3 6369 2 5892 14 8419 8 2466 11 2140 7 1522 6 1612 5 1663 18 9070 10 2040 17 11111 20 1806 13 5718 9 2419
20044 2.5803194631570268 -1.0025822337037202 6.1344660393158321 123 149 155 0.73325575850522995 8 2037 11 1670 18 7709 10 1585 20 1395 14 8236 6 1305 15 8207
20045 2.5748081060182786 -0.94935500092365677 6.1456000461226505 126 149 157 0.8344269049219627 11 1740 7 1259 18 8941 10 1682 20 1479 22 1318 21 1251 23 7993 15 8234 14 8262 6 1356 5 1434 9 2035
20046 2.9921466823240976 -0.051210530427213075 6.1786193616124621 116 131 136 1.3782441330639568 19 4126 15 6793 14 8757 8 3164 18 8370
20047 2.7536077791858884 -0.047307862837163851 6.242760962012218 206 221 230 1.8252506884570063 11 5533 6 2053 5 2097 4 2923 19 6562 14 8737 10 2758 19 5562 18 6915 15 6771
20048 2.8285752531074149 -1.2173538712549599 6.0281732309564537 107 129 135 0.82905632722457079 7 1057 19 6032 14 9359 8 1812 10 1379 11 1433 18 7615 20 1145 22 1091 21 1033 23 5644 15 8114 9 1760
20049 2.8200565374236555 -1.099621694762249 6.0508599237418936 126 146 152 0.31408776127646315 19 6066 18 8887 14 9400 22 3786 23 7941
20050 2.8605997588036538 -0.72681475627613057 6.1035379641971517 138 167 173 0.77518821178552211 7 1458 6 1558 14 9519 11 5054 19 6181 18 9019 15 9732
20051 2.8604579121657743 -0.72677060143427885 6.1024189863172786 138 169 173 0.92775705233442218 19 6182 18 9020 7 1459 15 9733 11 5055 14 9520 6 1559 5 1592
20052 2.9480892849405729 -0.61760243143008897 6.0975554124176261 132 149 159 0.94594427647670665 7 1548 8 5462 6 1643 14 9599 19 6231 18 9079 23 8176 15 9766 9 5575
20053 2.3354413641846254 -0.34620292797035357 6.3110723124003556 182 191 188 0.52192900097219808 4 8276 3 8594 17 11228 18 9262 14 9690 6 1826 11 2497 5 1890 13 6818
20054 2.9339042422013488 -0.74160140084003401 6.0797600937845662 173 204 207 1.2288820032214973 5 4046 4 8143 14 10333 11 5046 19 6948 18 9001 10 5218 15 9725 9 5471
20055 2.5093731538582649 0.20354434313887038 1.5346794723918828 122 90 61 1.3026294579991959 23 8581 15 9988 14 10533 21 6751 23 11183
20056 2.1789496404905822 -0.94013339887205016 6.2594038236501035 172 167 163 1.8013424068733079 6 6364 11 8277 20 6991 14 10935 4 10676 2 10001 21 7140
20057 0.69432102781831595 -1.5948671574598017 6.5609191357488932 109 113 98 1.2172115239326342 7 8330 4 11778 3 12019 6 8077 8 10149 21 7943 15 11828 23 11777 14 11682 10 10348 11 10419 20 8783 22 8438 9 11051 5 8112
20058 -3.5383508868951483 -2.741196865580096 7.5940526354329547 151 194 200 0.10792347592210308 15 5062 14 379
20059 -5.2430265804525558 -3.2058024851075979 7.9748709299399909 0 0 0 0.44739525217592407 20 3645 21 208
20060 -3.5884137092715616 -2.1887456114405905 7.6983495404307982 95 125 138 0.072806508306924256 15 781 14 803
20061 -3.7392552086412065 -1.8932327922169758 7.7923379091556031 81 125 140 0.44843400518430387 15 1029 14 1029
20062 -3.7392552086412065 -1.8932327922169758 7.7923379091556031 81 125 140 0.44843400518430387 15 1028 14 1030
20063 -3.0810010031407549 -1.4815638492985908 7.6497711579336487 86 116 130 0.83226023685263117 15 1252 14 1252 13 866 12 846
20064 -2.7956364190890222 -1.2259863932630564 7.5922235788385377 170 207 211 0.51074974757343661 15 1411 14 1416 13 954
20065 -2.8573468464903411 -0.87961495453497451 7.6693713519687616 108 137 149 0.3728088800821005 15 5945 14 1721 13 1159
20066 -3.0031205634247278 -0.30658344074509214 7.7999193395827353 96 130 145 0.18784466563673274 15 2287 14 2240
20067 2.7291558806384675 0.77611818208322225 2.2447303564103103 164 146 120 2.3500006632243515 15 9195 14 4707
20068 -4.1319905087695101 -3.080267339910721 7.7035956146000109 118 123 125 0.57713908528003899 15 5002 14 5181
20069 -3.3414611970834573 -2.7663328116490868 7.4987729018520959 151 194 200 0.48011879770864957 15 5050 14 5242 13 239 12 230
20070 -3.1945678596945233 -2.2746939007367106 7.5423572728810084 150 195 204 0.38107603399603734 15 5231 14 5401 13 516
20071 -3.3361435121436163 -1.9401100622814655 7.636538795686981 110 159 171 0.38822359640557597 15 5476 14 5568 13 683
20072 -4.4422858914953638 -2.1125782693689601 7.9297819957936619 0 0 0 1.2450693597525122 21 648 22 526
20073 -4.7594982657512634 -2.0692173940745207 8.0118909500485564 0 0 0 0.44913898744066688 21 702 22 3505
20074 -3.3851628841350117 -1.5189142641045841 7.7370122109678992 95 125 136 0.34520068921477065 15 8129 14 5715
20075 -1.9957256273424537 -1.4640768706570193 7.3509459835320952 119 147 162 0.067802874577553712 15 5651 14 5719
20076 2.6225003660824329 -1.2135204892451217 6.0862444064490999 124 147 149 0.2969341101045232 18 7621 14 5810
20077 -4.1168373843476518 -1.7368960182112505 7.8675160055347089 0 0 0 0.019695707232573915 20 1037 22 828
20078 -4.3604577972285048 -1.5268217933657724 8.0253504193782472 0 0 0 0.20825416150296128 21 1016 22 1022
20079 -3.5081311633265186 -0.76461204120211623 7.8821600892778454 98 126 141 0.19312026116439041 15 5997 14 6005
20080 -3.0257217273298109 -0.76721681239757245 7.7454821370600779 164 199 207 0.07837559716764575 15 5998 14 6006
20081 -4.4490110054044854 -1.2658207811303548 8.0931129436513274 0 0 0 0.24414363844559317 21 1136 22 3754
20082 -3.0378516262981994 -0.61168310083041211 7.7532195794163741 99 130 144 0.30110139158209387 15 6089 14 6049 13 1323
20083 -3.1059034550566142 -0.6216642398152864 7.8376396639287149 0 0 0 0.070388548522952205 20 4490 22 1518
20084 -3.3599931475471525 -3.1732033132023161 7.4388796525057552 99 130 144 0.54385971900831964 15 7703 14 7772 13 3447
20085 -3.4174618230367106 -2.7808963816641379 7.5098699172244325 150 193 199 0.58533041875864344 15 7775 14 7826 13 3546 12 4135
20086 0.61124488418791345 -2.0091154631951009 6.5162340524760012 171 205 198 0.34779197557004149 15 7816 14 7878 13 5340 12 6137
20087 -4.3473432899463473 -2.3303124554421655 7.8695790564147146 0 0 0 0.35703372254417887 21 3449 22 5246
20088 -3.3982237595562506 -1.6226214358857434 7.727009106794493 158 196 206 0.43988524732468448 15 8094 14 8064
20089 -4.9510973156077736 -1.895486142308505 8.1157815869547196 0 0 0 0.46329230581451075 20 5721 21 3613
20090 -4.987431895479447 -1.5964396353095143 8.1508100510768937 0 0 0 0.031462557579610362 21 3694 22 5475
20091 -3.0260116349073485 -0.93493137072909271 7.7194169120431768 158 199 210 0.056122188241204157 15 8258 14 8210
20092 -3.3033823758449636 -0.7972039103821521 7.7996189514115439 147 155 142 0.36290689150289146 15 8289 14 8250 13 5642
20093 -3.3903124351462868 -0.69158793266660157 7.854363243798014 157 197 211 0.57978212853063193 15 8328 14 8284 13 4112 12 4718
20094 -2.845744093891641 -0.6371207655811798 7.6962598464881484 164 200 212 0.40838275537996538 15 8345 14 8302
20095 -2.2086366752801458 -0.076015590260729529 7.6223332675728086 163 200 215 0.31558108111007344 15 8568 14 8500
20096 -3.3469828932514933 -2.9140129385173106 7.5099462516475093 147 191 199 0.041922720192764981 15 9327 14 9145
20097 -4.5869974840690748 -2.4873723772469587 7.9126551958679165 0 0 0 0.53255110936524264 20 5553 22 5213
20098 -4.6187228539568892 -2.1286447914041315 7.9799428826872791 0 0 0 0.39914193805167864 20 6834 22 5302
20099 -3.1745146546184557 -1.5597399823897014 7.6525006852565092 147 156 141 0.43166474235355806 15 9549 14 9325 13 5498
20100 -3.3176078799571433 -1.4973005960886738 7.7188680762403701 151 193 204 0.91592224339085426 15 9559 14 9336
20101 -2.01891483803935 -1.4103219079919049 7.3792517259332016 165 204 213 0.20274947505180507 15 9564 14 9343
20102 -2.6782979026103404 -1.3757631575924276 7.5385287653225257 160 198 210 0.83786607166358318 15 9579 14 9351 13 5532
20103 -2.6313021221665776 -1.0193980144861705 7.5927887728322254 156 199 210 0.36959618756100077 15 9643 14 9408 13 5594 12 6366
20104 -4.7398613352786096 -1.4606515320445279 8.1299417120174162 0 0 0 0.011016126768574837 20 6937 22 6670
20105 -3.3818578886422692 -1.5272880441605372 7.7312283393309329 0 0 0 0.12194289697064591 20 5791 22 5486
20106 -3.2283146303644452 -0.80417605226057431 7.7812407111627335 149 193 208 0.24575593781561678 15 9695 14 9455
20107 -3.0004921892749099 -0.72922864032031476 7.7248283347103621 159 197 212 0.052991137266268765 15 9713 14 9468
20108 -3.8250717058338335 -0.71377582909406212 8.0361986319336989 0 0 0 0.4553704462980479 20 7084 22 5654
20109 -2.3658321828908715 0.041621420824508648 7.6771317298481048 159 171 162 0.19849416180720264 15 9839 14 9628
20110 -2.5349632656976273 -2.4350684814157106 7.3359231704990879 155 199 207 0.76427481293305499 15 10301 14 10114 13 6449
20111 -2.8531711276362985 -1.1820509962390744 7.6351144466084637 160 200 211 0.39560189526092604 15 10460 14 10225
20112 -2.8531711276362985 -1.1820509962390744 7.6351144466084637 160 200 211 0.39560189526092604 15 10461 14 10226
20113 -3.3213721970455414 -0.70650848277560563 7.8375788906667667 103 133 148 0.0021627873408194905 15 10528 14 10274
20114 -4.1808924163885015 -1.229079562170919 8.0391735144024512 0 0 0 0.16625121907458371 21 6430 22 6706
20115 -2.8146197711883514 -0.67312149208881633 7.6861780167640221 122 138 146 0.04188672227203448 15 10539 14 10284
20116 -2.9293198264509126 -0.55927605643519362 7.7516562211071909 161 198 210 0.044044595649299363 15 10561 14 10300
20117 -1.7290075803160831 -0.31961073398055845 7.4450537247994957 170 176 162 0.095062389697093241 15 10604 14 10348
20118 -1.7437439634956517 -0.31968373715383941 7.4623240730432272 170 176 162 0.2559301168826455 15 10605 14 10349 13 6726
20119 -2.8442482987348332 -2.69938442321217 7.3701593869371234 155 195 202 0.68795639778387807 15 11462 14 10756 13 7732
20120 -1.8374178898631663 -2.3995366858823459 7.1702636331159146 160 200 207 0.031609258928466444 15 10961 14 10777
20121 -3.3836152957097383 -1.8904933127274395 7.7011603410068172 151 193 208 0.051022347103652138 15 11047 14 10853
20122 -2.7435704557968061 -1.4454762409215975 7.5499299355350278 147 194 205 0.24818233973260947 15 11071 14 10879
20123 -3.6028542570461495 -1.980560555517243 7.717903698315884 0 0 0 0.088309883583480367 20 7656 22 7435
20124 -4.4140673044328915 -1.705027910954467 7.9890684577210456 0 0 0 0.45111306267905521 20 8327 21 7066
20125 -2.7069598200719924 -0.9028266593887222 7.6129100888388042 157 199 212 0.2671115679200029 15 11123 14 10919
20126 -2.7069598200719924 -0.9028266593887222 7.6129100888388042 157 199 212 0.2671115679200029 15 11124 14 10920
20127 -4.402329963920967 -0.99148269729901772 8.1273392962151298 0 0 0 0.031380430158224872 20 8402 21 7141
20128 -1.6851079379761034 -2.3436129468599027 7.1076294452801401 160 201 206 0.25501548813912278 15 11469 14 11312
20129 -3.3759929948235694 -1.8918969116375672 7.6978752441473892 0 0 0 0.095725184522276324 20 8292 22 8003
20130 -2.5061045071278225 -0.90605947751438221 7.5737370738052947 159 199 212 0.50927704080036251 15 11581 14 11414 13 7854
20131 -1.4768511348884381 -0.34765592101581633 7.3827220583494535 169 205 215 0.22202102581176791 15 11628 14 11451
20132 -1.1578772907259469 -0.21379223760113172 7.3008632914002565 146 159 168 0.056285315300776601 15 11641 14 11465
20133 -3.1406522067820912 -0.46898906968754778 7.8725629591498629 0 0 0 0.20830798932150493 20 8473 22 8127
20134 2.6535235607478258 -0.11894591716490596 3.6748396245431327 176 140 95 2.3839328671151589 15 12389 14 12296
20135 5.4657935361554388 -1.5793697738928034 5.2406548789599876 103 98 89 1.2498867761614543 7 7221 6 7025 8 9431 18 10936 19 8009 9 10119
20136 2.9464274717137577 0.15907970445217998 6.2322307360513003 190 214 225 1.3098629202388175 6 7651 5 7555 3 11479 2 10763 18 11242 15 11957 14 11831
20137 1.867344623485099 0.31386087383870298 1.8219815025126309 120 90 43 1.0143397261593476 6 2047 5 2065 4 6553 3 6576 1 1989 2 6033
20138 1.8586630219859868 0.23859431715539628 1.8051210690898487 128 93 42 0.73323354316737854 6 1914 5 1968 4 6491 3 6520 1 1901
20139 1.3269675978663091 0.94252258849273574 2.5761452180296049 64 98 64 1.0955106077248382 2 3167 1 2906 4 3698 3 3627 3 7192 5 2612 6 2616
20140 2.6084796424937013 0.39005473145281916 3.5973255515248042 190 146 110 0.79189655279365156 4 3119 3 3029 5 2290 7 4502 18 10656 10 8760
20141 1.4556298947058011 0.039335620026901892 6.6273969356008111 206 218 226 0.55063734167729461 5 2298 4 6766 3 6996 2 6526 16 5528
20142 2.0924633356023539 0.82478800246747186 2.1220212284637192 137 125 68 0.73621270844898534 4 11986 3 12271 2 11229 1 10354
20143 2.4271902540600432 0.24753266312849023 6.380174585209021 143 152 163 0.82758840164140768 8 5910 7 4521 6 4365 5 4440 11 5730 4 8499 3 8798 2 8222 1 7467 17 11879 14 9837 10 5905 18 10217 13 6996 12 7760 9 6116
20144 2.4271902540600432 0.24753266312849023 6.380174585209021 143 152 163 0.82758840164140768 8 5911 7 4522 6 4364 5 4439 11 5729 4 8498 3 8797 2 8221 1 7466 17 11880 14 9838 10 5906 18 10216 13 6997 12 7759 9 6117
20145 1.9312233525447351 0.64198879008658993 1.6655077538383241 91 63 41 0.53015336679589109 3 9654 4 9544 2 8065 1 5629
20146 1.8832819404150039 0.36100396709300259 1.6641894219202904 201 154 125 0.81792683320258774 6 7264 5 6517 4 10234 2 7917 7 7470 3 10338
20147 1.8786468240300012 0.37106939338318939 1.5202779659758368 182 128 82 0.69315266865008862 6 8207 5 7773 4 11247 3 10956
20148 1.7895026693625899 0.19997046017572753 1.8630495027096474 215 172 130 1.2093072420869668 6 5550 5 5563 4 8303 3 8550 2 5930
20149 1.8357500571337848 0.47152771176144403 1.581674342998759 168 131 80 0.62494205086487487 4 6669 2 6108 5 2250 7 2234 3 6696 1 2160 6 4340
20150 1.8500502583072556 0.32727873625606563 1.6681142830724411 213 167 135 2.0072593195649544 5 4304 4 6555 3 2677 9 9065
20151 6.0320122881021412 -0.40650127837540362 1.359040796771108 3 13 17 1.5820898571570119 6 5299 3 8314 4 9262 2 7646 1 6910
20152 1.8855456806501054 0.077815829242389625 1.5251052077334664 117 82 70 1.2358124250154372 6 8170 7 8412 5 7743 3 10918 4 11202
20153 1.781438745655316 0.095903570435300775 1.6884231755186199 69 44 34 0.86169935431764988 7 5659 3 2302 5 1816 6 4072 4 6342
20154 2.1700047926636215 -0.024219461946238641 1.2995722554224776 0 0 0 1.7133867334737001 6 8149 7 8394 3 11856 4 11619 5 7960
20155 2.1700047926636215 -0.024219461946238641 1.2995722554224776 0 0 0 1.7133867334737001 6 8150 7 8395 3 11857 4 11620 5 7961
20156 2.7550459979724908 0.58371366498040955 4.4673143555344916 37 83 52 1.9928585486172314 4 10857 5 7579 2 10139 1 9346
20157 1.8383981284456474 0.10632524538174994 1.5730791437020422 94 60 38 1.5449049083456858 2 10444 4 11452 3 11659 9 11184
20158 1.9153469506334919 0.11310523924493562 1.4819016931178133 96 60 46 1.1301958512037718 6 4062 7 4144 5 4140 2 5776 4 8236 3 8472
20159 -3.6178531498393891 -3.4627488813434484 7.441520784214009 156 190 194 0.57188241130656647 14 26 13 12 12 31
20160 -3.0981205726586944 -3.3372735144573027 7.3124018129495587 155 197 203 0.45796970765785483 14 42 13 16 12 34
20161 -2.9728415197878233 -3.2088114196642681 7.299261069452772 88 138 145 0.33458422404818428 14 90 13 48 12 63
20162 -1.9429871103999168 -2.9848363682046846 7.0478753941945262 129 131 132 0.41119406662729124 14 5106 13 56 12 72
20163 -3.9416526037808639 -3.2733491737539779 7.5608697222839982 83 111 116 0.35099024323781186 14 157 13 101 12 108
20165 -1.3454024293744384 -2.7439734718574407 6.9294623043511612 129 145 140 0.37648280167292264 14 5145 13 114 12 119
20167 -1.3585189343453037 -2.724711167676098 6.9420688461597253 164 205 211 0.62743496722200742 15 88 13 119
20168 -3.6196638954729945 -3.1515732578065832 7.503405683725628 147 189 193 0.25385893308710289 15 4953 13 126 12 122
20170 0.10483978183061177 -2.2676827726424542 6.6141650350931638 179 212 211 0.14095894312931384 14 360 13 204
20172 -4.4688186961383929 -2.8746828282137971 7.7686850287944056 130 142 123 0.22504634540694196 14 5253 13 268
20173 -1.3535629200394479 -2.3066658767367199 7.0052470357307959 110 157 163 0.47492694593738038 14 479 21 353 13 299 12 300
20177 -4.429876360998108 -2.7343164645791433 7.7964242313273493 80 111 118 0.40610755534311682 14 5288 13 318 12 291
20178 0.664499794805261 -1.9818834273491148 6.5114542855343389 137 156 156 0.44702381722929596 15 412 13 328 12 338
20179 0.664499794805261 -1.9818834273491148 6.5114542855343389 137 156 156 0.44702381722929596 15 413 13 329 12 339
20182 1.6478827933897764 -1.8313899680649561 6.2541052744359664 168 209 211 0.080772708940089005 15 454 13 338
20183 0.39492928936464278 -1.9980826464807591 6.5806318216709432 144 160 156 0.27736444921964254 14 581 13 350 12 360
20184 -0.31842444852426094 -2.0944915115075555 6.7547445459081095 112 137 136 0.17933784736627897 14 564 13 356 12 349
20185 -0.31842444852426094 -2.0944915115075555 6.7547445459081095 112 137 136 0.17933784736627897 14 563 13 357 12 350
20186 1.0445711056126834 -1.8908260278319555 6.4207826892599273 174 213 210 0.68815720164796845 14 640 13 365 12 394
20189 -2.8713699261593164 -2.4095655350196235 7.4177751600771797 95 126 137 0.14542437064334401 14 5333 13 386 12 351
20190 -2.8713699261593164 -2.4095655350196235 7.4177751600771797 95 126 137 0.14542437064334401 14 5334 13 387 12 352
20191 -2.9983167064421075 -2.4103045454017948 7.4597625718079703 97 130 143 0.17148709907071766 14 547 13 404 12 363
20192 3.152734311409314 -1.5451542614804883 5.8804955881745613 0 0 0 0.20011164736977571 2 1046 4 1434
20193 0.25778352664490894 -1.960281192456607 6.6271279556745757 140 156 153 0.38178515914026567 14 660 13 411 12 421
20195 1.693387806793867 -1.7616476538395263 6.2518076481813969 112 142 149 0.26727009441568583 15 556 13 422 12 471
20196 0.63954888694297685 -1.8992425026726576 6.5281524563065885 180 214 211 0.56804859941497587 14 692 13 426 12 438
20199 1.7017148741857488 -1.744963130462059 6.2597208241894284 120 147 155 0.15575392889867229 14 769 15 602 13 441
20200 3.0631617988828106 -1.5165350666290909 5.9069622484037536 0 0 0 0.016308667102451081 2 1069 4 1450
20201 0.26434221627307058 -1.9218098007744224 6.6325346335885529 142 159 156 0.10876647098995512 15 579 13 455
20202 -1.5244231926271619 -2.1032430435783609 7.0896507720734983 113 162 169 0.35583533300054365 14 699 13 494 12 484
20203 -1.5244231926271619 -2.1032430435783609 7.0896507720734983 113 162 169 0.35583533300054365 14 700 13 495 12 485
20205 -0.43191100974323654 -1.9651935367082147 6.8010030526049698 175 209 213 0.10904483326496639 14 730 13 499
20207 0.4031198172241009 -1.8458675149477883 6.6028084237772093 187 214 212 0.19352376049612144 14 790 13 512 12 540
20208 -4.8813393926725652 -2.4239595518191215 7.9755396275910071 129 140 132 0.46792481256038565 14 5406 13 537 12 514
20210 -2.5277436882446613 -2.1319536964102226 7.3634917523636156 118 139 143 0.19958143288206714 14 758 13 548
20211 2.9436263050963194 -1.4124538768526036 5.9633158727759863 0 0 0 0.20220692678012386 2 1182 4 1579
20212 1.7543779453319543 -1.6110656835054467 6.2602158422130376 139 153 150 0.57464867723909263 14 957 23 1128 13 573
20214 -0.64283623635832143 -1.8334096482428379 6.8932424176803817 144 162 164 0.090622914323194706 14 895 13 600 12 614
20215 1.1418391446885128 -1.6463993759715838 6.452437263273243 130 171 173 0.47293288469396277 14 984 13 603
20217 -0.52027294821498915 -1.7720275321597929 6.8738746267074022 182 214 216 0.97485472432553055 21 707 13 629
20218 -2.3774407296694209 -1.9522206812900411 7.366400307967548 102 135 145 0.64600351051957838 14 913 13 630 12 638
20219 -4.7800733979367589 -2.1458847640690442 7.9956945236544819 119 139 134 0.53090348018976952 14 899 13 647 12 642
20220 -4.7800733979367589 -2.1458847640690442 7.9956945236544819 119 139 134 0.53090348018976952 14 900 13 648 12 643
20222 -3.7615432101250912 -1.9697015740063522 7.7312383777832236 149 193 208 0.72109145257425566 14 5564 13 684
20223 -1.5868210550496689 -1.7762859305396717 7.1762693558732433 107 142 152 0.27299401467071793 14 5592 15 5498 13 693 12 713
20224 -1.0458844333117074 -1.7246671246507339 7.0300921464449715 123 151 159 0.29093958863760949 14 1026 13 696 12 720
20226 -4.2465817711175671 -1.9783314132340959 7.8833333676707555 149 194 206 0.22821909121470507 15 5514 13 701 12 704
20229 -4.624322541302849 -1.9672692709495703 7.976139690172757 147 188 199 0.79981452154441257 14 1016 13 712 12 717
20230 -3.4203967633114565 -1.8660219054565488 7.6685931146404824 89 124 139 0.40866438256235155 14 5602 13 715 12 726
20234 -2.1281577008836599 -1.6865278503143173 7.3438261727955103 168 201 202 0.49150084459185167 14 1093 13 747 12 758
20235 -1.8533873099598988 -1.6167505480267736 7.2799591648448319 173 212 219 0.3048894486078198 15 5578 13 762 12 778
20236 -4.1032461985196074 -1.7328648176376957 7.8774758869696839 85 118 126 0.6993910863443884 14 1132 13 774 12 774
20237 -3.24567867653345 -1.6552363147240516 7.6502872239756483 155 200 210 0.19171749142266897 15 5592 13 787
20238 -3.24567867653345 -1.6552363147240516 7.6502872239756483 155 200 210 0.19171749142266897 15 5593 13 788
20240 -1.9816685685054525 -1.5160429562798519 7.3371501198265197 166 200 205 0.63588886839846326 15 5625 13 823 12 816
20241 -0.46614802770177655 -1.4167573581168487 6.9188326142897845 187 219 222 0.14166803344112272 14 1233 13 828
20242 -0.36287015567356984 -1.4070231601377063 6.8934687388650655 186 222 224 0.28986298906181923 14 1247 13 832 12 840
20247 0.73256486493322359 -1.3077085488206039 6.6056398796886491 171 185 172 1.0770062114340568 14 8104 13 860 12 6306
20248 -1.5489374095246475 -1.3919326333872228 7.2398872234710199 125 170 178 0.69834496885148956 14 1295 13 872
20250 1.5236081566355957 -1.2455800107659258 6.4030196910407815 193 220 221 0.6177412118549851 14 1360 15 1260 13 876
20251 1.4716958587499158 -1.2480947846054049 6.4286518787024871 194 224 226 0.19556350289726887 14 1358 13 880
20253 -0.34919883251735728 -1.3158109980188994 6.9021042065995148 190 222 223 0.38326837310354778 14 5783 13 889 12 892
20255 -2.5113262972860722 -1.3392474133652179 7.5088192728628096 108 136 145 0.64847186356654951 14 1339 13 907 12 904
20257 1.8377386623167669 -1.1151381672388609 6.3209464437343712 196 226 228 0.33099922497891238 15 1384 13 947 12 4605
20259 -4.3781470413273942 -1.254530030838535 8.0293508576027772 108 127 134 1.0498341213675408 14 1405 13 957 12 942
20260 0.014503661020497344 -1.1092275113167862 6.8279217651370017 198 223 224 0.014939400176657736 14 1505 13 985
20261 -4.1370379585405992 -1.1771866901044172 7.9822655801086828 159 195 205 0.88350027656753205 14 1450 13 993 12 965
20262 -2.9107027322937835 -2.5428052448193759 7.1810245422326631 0 0 0 2.4517716779707577 10 6430 11 6368
20264 -0.045359922515092549 -1.0665827402928005 6.8698759231862736 194 221 222 0.11882431097785691 14 1558 13 1017 12 1066
20265 0.036824281069548395 -1.054796829724707 6.8466557391363692 177 189 191 0.18552548079184361 15 1516 13 1024 12 1080
20266 -0.14287667558805422 -1.0476850531650934 6.8931612347607452 165 178 180 0.17617873008038643 14 1576 13 1032
20270 2.0434710332541748 -0.99671174050595346 6.2477916943413465 190 217 218 0.29732458242933957 2 1521 3 1897
20271 1.0393849216113964 -1.0101619923136649 6.5637700315086649 151 170 169 0.37483183725130709 14 5943 15 1550 13 1053
20272 2.6186997951174571 -0.97790641810174472 6.0356520760469881 184 211 215 0.6108292132332469 14 1753 13 1061
20273 -2.5826865251316669 -0.99151941407065325 7.5864565445740206 113 140 152 0.82366484963520081 14 5925 15 5893 13 1074 12 1104
20274 -2.5949137277765026 -0.99337448339319601 7.5961442791663858 113 140 152 0.66714320247009251 14 5926 13 1075 12 1105
20276 0.049518210034527686 -0.97925972834894826 6.8478612563360217 168 187 186 0.1729752997874491 14 1680 13 1084 12 1172
20277 -4.1767512121267005 -0.98273384304680589 8.0156658818077275 159 199 213 0.66645494896246249 14 5917 13 1090 12 1088
20278 -2.8289016837071532 -0.97704034834197151 7.6440066331091154 106 139 151 0.39981946855226241 14 5929 13 1091
20279 -0.17064979009760878 -0.97416675064011393 6.9192639317395068 166 181 182 0.075056008850262784 14 1685 13 1092
20280 -4.9560562956901517 -0.97564528067935385 8.2022327740702963 104 128 145 1.0936603709774129 14 1580 13 1094 12 1079
20281 -4.1481306574878287 -0.96917169610518639 8.0191203569680578 89 122 135 1.0024185899949984 14 1599 13 1100 12 1100
20282 -1.3837789814478902 -0.9197743154917345 7.2740634772850044 185 219 227 0.46232344934318037 14 1722 13 1141
20283 0.21930567867779621 -0.92628366131103612 6.8101442492054396 180 208 222 0.1516079380813373 14 1759 13 1142 12 1234
20284 0.16606902288643199 -0.90528170638008976 6.8345952004487245 184 211 225 0.049302924536053394 14 5991 13 1162
20285 1.815526849433919 -0.90832002223239994 6.3897743350608076 194 224 226 0.1699500732012531 14 1852 13 1166
20288 -4.8886634314538222 -0.78024183171630812 8.2333557820644607 106 126 131 0.87492252650490909 14 5983 13 1201 12 1224
20289 0.69989437878692962 -0.84701936463418359 6.695345660517674 172 202 206 0.081328457046823815 15 1754 13 1208
20291 -3.5040824529358052 -0.76525143979237198 7.8762658995603969 104 136 144 0.74567091519052842 14 6004 13 1214 12 1250
20293 -1.9700458485797403 -0.75085849133495974 7.4655520654801215 175 215 226 0.47311400489108885 14 1877 13 1240 12 1290
20295 -3.7018080358283529 0.041498185162125806 1.7152654959631843 163 190 184 1.6116339853019859 14 5919 13 1245 12 1059
20296 -0.11725022846097233 -0.77811453495737481 6.9379912851818473 150 178 187 0.34453214749986955 15 1840 23 2164 13 1249
20298 1.8135689076063977 -0.81678147156246961 6.3931110904057462 203 228 224 0.25488389233638181 14 6063 15 1804 13 1256
20299 1.7540707931741333 -0.79345898942453996 6.4156043301939212 205 225 229 0.37501848083016703 14 2009 15 6006 13 1286
20300 -3.677908277594677 0.10726723488481019 1.6243775605127786 12 23 25 1.1163670801306569 14 8219 13 1294 12 1114 12 4649
20301 -4.5988043756355523 -1.135279787796609 8.2177161503922989 0 0 0 0.44263168740649061 21 1217 23 1770
20303 -1.9723726725088335 -0.64572331418382878 7.4696575356423862 149 162 167 0.41532486243152805 15 6081 13 1325
20306 -1.572363278109514 -0.64363731256766321 7.3745338189811944 132 166 179 0.38351526094592259 14 1992 13 1339
20307 2.1693281469321519 -0.75680122513073156 6.2983539651777436 182 197 197 0.13829503837467497 14 2103 13 1350 12 1538
20310 -4.4435300989278161 -0.49857841374056761 8.1684073025392241 153 194 209 1.3084053286550941 15 2059 13 1365 12 1365
20311 1.6569416116126778 -0.71944546599620363 6.4439364942930695 201 225 229 0.13725781407143156 2 5879 13 1380
20312 1.6569416116126778 -0.71944546599620363 6.4439364942930695 201 225 229 0.13725781407143156 2 5880 13 1381
20313 2.1326284212529414 -0.72959756585771729 6.3056542745818742 198 223 224 0.44789686685539593 3 2263 13 1387 12 4896
20314 2.0565073575629387 -0.71886674318496635 6.330610533651722 178 188 188 0.23822106742667129 3 2284 13 1402 12 1590
20316 2.0991516829758532 -0.71033052651194861 6.3191737339938214 180 189 190 0.3147936172171929 4 2253 13 1416 12 1615
20318 1.9478832782360342 -0.69001719206797973 6.3662210286023555 204 223 222 0.14014400927435083 4 2285 13 1431
20319 2.220099502592273 -0.67409890309209963 6.2903283986350704 181 186 185 0.043573378228013521 18 6382 13 1467
20320 1.8603476050947412 -0.63892342737852292 6.4000728949475887 187 196 198 0.1105589283437502 2 2053 4 2369 13 1494 12 1663
20321 2.4724445574543501 -0.66702946348283165 6.2176098206614538 192 222 226 0.56853611180460151 18 4416 13 1496
20322 1.9806331492505251 -0.63303824350336035 6.3658746035858202 204 224 226 0.33847725052720046 4 2374 13 1507
20324 1.9773160615276506 -0.60849411871332248 6.3713783403539921 203 224 226 0.0083823587208243892 2 2103 13 1548
20325 2.1069322472775878 -0.61490116597679512 6.3332551846857728 203 223 224 0.33415952187073339 3 2448 13 1552 12 1751
20327 1.8847973644533829 -0.59179360350538057 6.4008463513377336 207 225 225 0.11035275941381117 17 9111 13 1561
20328 1.8533821340206231 -0.58740481047731752 6.4097708758373351 183 193 195 0.41317381102154727 2 6012 13 1563 12 1746
20329 2.3701351487687345 -0.61379515472336721 6.2461752251988925 192 208 213 0.021328118502220713 14 6304 13 1570
20330 1.8955039235496236 -0.58283578844024397 6.3985605613695329 185 191 194 0.087653382134096181 4 2459 13 1574
20331 2.1335477693525142 -0.59610626191440852 6.3293646763597602 201 223 229 0.11202383650028806 17 7711 13 1577
20332 1.940031497550619 -0.57751668837899284 6.3876839431500283 186 192 193 0.13916460515848197 18 6591 13 1585
20333 2.0302538045654854 -0.58150181322224648 6.3602028359232872 206 224 224 0.22799010811092671 2 2134 3 2526 13 1589
20335 2.3126184198650268 -0.59140911554351372 6.2760832341050845 191 211 220 0.30457092850765194 4 2431 17 9104 13 1609
20336 2.0461559233865962 -0.54688150310457584 6.3621628590629982 162 182 193 0.075611808221825588 4 2489 13 1642
20337 -2.2664150640687621 -0.18679622294514123 7.6713643704549375 162 167 166 0.98592501113275222 14 2465 13 1684
20338 2.209461164151044 -0.51581658216863902 6.3295129316415339 198 220 228 0.19469723817029394 14 2610 13 1713
20339 2.4559250875740575 -0.077380477324366939 1.441343579019895 216 168 136 0.70824874542355143 14 6309 13 1768 12 1530
20340 2.4559250875740575 -0.077380477324366939 1.441343579019895 216 168 136 0.70824874542355143 14 6308 13 1769 12 1529
20341 -2.6587400693232701 -0.013908907305318503 7.7269259979981539 168 208 221 0.29975741651042398 14 2617 13 1794
20342 2.568498112712517 -0.096278868809860807 1.6480313976021688 116 85 55 0.49486987210002303 15 6422 13 1799 12 1612
20343 1.9281883117838623 -0.41829891198625718 6.4165588069006736 208 229 235 0.56032886897642276 2 2366 13 1810 12 2005
20344 -6.4144998860368183 0.69969875486548483 6.5098234409380167 5 16 19 0.94948859241491335 15 6551 13 1859 12 1806
20346 3.1774696937575682 -0.25612124870022718 3.4838528824474579 112 72 45 0.31846592522123235 14 6553 13 1885 12 2029
20347 2.4973829226974473 0.074772905178032187 1.564526377212164 101 69 46 0.31626275149700933 15 3160 13 2015 12 1971
20348 2.4980732242297576 0.075722784780885136 1.5739511652299059 99 67 45 0.15735338542377092 15 3163 13 2017 12 5159
20349 2.2496840628978783 0.13252883600186266 1.3875257292952439 126 73 49 0.17936884528750616 14 6700 13 2026 12 1957
20350 3.1821077427522453 -0.1670791518956804 3.8854688428752535 104 97 74 0.43148384153362335 14 3222 13 2034 12 5357
20351 2.4940978312526596 0.088678611568678511 1.6823895335772456 87 67 38 0.63933110250953062 14 6739 13 2050 12 2028
20352 2.2529816159240483 0.15437180720639262 1.3864103854540089 161 106 78 0.94061242845057524 14 6754 13 2062 12 2002
20353 2.4946628786758498 0.10842541859266536 1.5431320384512259 154 120 95 0.1639508653548393 14 6773 13 2068 12 2036
20354 2.4790269693609419 0.10632420842366615 1.674159873314871 95 79 57 0.2580693296246096 14 3237 13 2075 12 5207
20355 2.4759011981768335 0.12758948376375942 1.6804984100368707 91 76 55 0.6267779399121598 14 6837 13 2125 12 5240
20356 3.2075595604269727 -0.12171637049306276 3.9879920633442865 117 113 87 0.57905729726267685 14 3359 13 2128 12 6820
20357 2.4964250099674503 0.13306301345377589 1.5379298364274521 124 90 61 0.25414294790149344 15 3365 13 2131 12 2080
20358 2.4855884704199056 0.14659813522163498 1.5192534357929108 125 87 64 0.25904190559030948 14 6859 13 2166 12 2103
20359 0.10494388592385819 0.43986296889031601 4.0808433718718717 107 50 27 0.93105879871761144 14 6853 13 2167 12 5336
20360 2.4558871386612098 0.13806533391221537 2.0039848957944546 130 129 82 0.44553638708641724 14 3374 13 2195 12 2184
20361 2.5400672063980734 0.17216335722092643 1.5805865124426073 115 77 46 0.28821473737363945 14 6921 13 2241 12 2191
20362 0.13262909803080944 0.73110008414563954 4.1913472261372382 56 127 77 0.78967769022073986 14 7034 13 2412 12 2486
20363 2.7332711198291966 0.14310976667924491 6.2264993895758067 206 223 233 1.2100352957280414 14 3697 15 3434 13 2446
20364 3.1653521987342059 0.38887597874690311 3.8993932836305243 81 81 52 0.44290076311678256 14 4081 13 2697 12 2958
20365 3.064094664631857 0.53034879541997426 4.6593239088891467 164 205 199 0.2278022779170259 14 4173 13 2753 12 5747
20366 2.823418896540324 0.68092309295789588 3.4957484880903062 110 82 42 0.60590670726261942 14 4405 13 2841 12 3201
20367 2.3496652127248443 1.0328354020426476 1.6247572536890396 66 69 31 0.56881986359472414 14 7710 13 3131 12 3334
20368 2.7709947769883834 0.91175666629082985 2.2667536730979587 15 59 22 0.65076858336103338 14 4905 13 3134 12 3480
20369 2.8612993633970545 0.93150610614465323 2.1430460541881549 88 166 110 0.59135317879529958 15 7618 13 3170 12 3626
20370 -5.1787653232971547 -3.7293237190454476 7.8359016878751193 138 181 181 0.3616307044677804 14 7746 13 3431 12 4040
20371 -2.5357556481133536 -3.0751179009420002 7.1918200150999869 134 135 127 0.6808462707374825 14 7760 13 3440 12 81
20372 -2.5357556481133536 -3.0751179009420002 7.1918200150999869 134 135 127 0.6808462707374825 14 7759 13 3441 12 82
20373 -3.7950956081942819 -3.5494023417314668 7.4778839957442287 0 0 0 0.228218674432001 21 12 23 54
20374 -4.6316737612813581 -3.6728769901112734 7.7111624086650901 0 0 0 0.15980845803057997 21 18 23 4733
20377 -3.5418848570993573 -3.0331955167861127 7.4901140704515186 145 188 194 0.65893883313739554 14 7793 13 3489 12 4090
